# .PCD v0.7 - Point Cloud Data file format
VERSION 0.7
FIELDS x y z
SIZE 4 4 4
TYPE F F F
COUNT 1 1 1
WIDTH 1544
HEIGHT 1
VIEWPOINT 0 0 0 1 0 0 0
POINTS 1544
DATA ascii
0.12591396 0.029999996 0.5717786
0.13559541 0.029999997 0.57385707
0.14385639 0.029999997 0.57473195
0.1546602 0.029999997 0.57730103
0.16314402 0.029999997 0.57191908
0.17526817 0.029999996 0.57714498
0.18638968 0.029999997 0.5755794
0.19312537 0.029999996 0.57464796
0.20772175 0.029999997 0.57612252
0.21271162 0.029999996 0.57563072
0.22443582 0.029999997 0.57570183
0.23303276 0.029999997 0.57801473
0.24645434 0.029999996 0.5742873
0.251142 0.029999997 0.57948977
0.26676446 0.029999999 0.5739482
0.27664301 0.029999997 0.5762645
0.28480721 0.029999999 0.5735175
0.29360244 0.029999996 0.5763377
0.30448261 0.029999999 0.57608712
0.31444535 0.029999996 0.5753448
0.32411179 0.029999997 0.5789994
0.33967051 0.029999997 0.57561159
0.34344229 0.029999997 0.57786238
0.35165101 0.029999997 0.57243532
0.36227679 0.029999997 0.57815003
0.37353098 0.029999997 0.57891494
0.38822895 0.029999997 0.57424629
0.39544836 0.029999996 0.57361823
0.40000007 0.025490003 0.5739969
0.0091330605 0.029999999 0.57857013
0.015958574 0.030000001 0.57404196
0.026005389 0.030000001 0.57502246
0.035357304 0.029999999 0.57435024
0.045259025 0.029999997 0.57593334
0.055910081 0.030000001 0.57378256
0.06653446 0.030000001 0.57438225
0.074578531 0.030000001 0.57378298
0.08517924 0.030000001 0.57453924
0.095223375 0.030000001 0.57556927
0.10366295 0.030000001 0.57471007
0.1148574 0.029999997 0.5748769
0.12510438 0.030000001 0.57484561
0.13543499 0.030000001 0.57555336
0.1447382 0.030000001 0.57746887
0.15422449 0.030000001 0.57505196
0.16531804 0.030000001 0.57526529
0.17502922 0.030000001 0.57709759
0.18572651 0.030000001 0.57486433
0.19412495 0.030000001 0.57749474
0.20567419 0.029999999 0.57843101
0.21622425 0.030000001 0.5753352
0.22550961 0.030000001 0.57456177
0.23625925 0.030000001 0.57727593
0.24460502 0.029999999 0.57469696
0.25331804 0.030000001 0.57410216
0.26554215 0.030000001 0.57635057
0.27614984 0.030000001 0.57777971
0.28386128 0.030000001 0.57383239
0.29381636 0.030000001 0.57578635
0.30557224 0.030000001 0.57540512
0.31442574 0.030000001 0.57420218
0.32447624 0.030000001 0.57457739
0.33552244 0.030000001 0.57293892
0.34456545 0.029999999 0.57617813
0.35606 0.030000001 0.57360345
0.36592948 0.030000001 0.57762241
0.37365589 0.030000001 0.575616
0.38654399 0.030000001 0.57451403
0.39409828 0.030000001 0.577281
-5.2863657e-17 0.0045752223 0.58465463
0.0053498256 0 0.58512658
0.014659013 0 0.58486688
0.027120814 0 0.58223939
0.036341272 0 0.58619773
0.043878209 0 0.58529824
0.056877293 0 0.58603859
0.064639919 0 0.58501315
0.073665567 0 0.5847286
0.085148215 0 0.58450383
0.093032837 0 0.58299494
0.10249449 0 0.58410454
0.11430054 0 0.58559078
0.12368965 0 0.58551723
0.13537252 0 0.58446246
0.14638603 0 0.58522314
0.15567462 0 0.5852806
0.1657887 0 0.58346641
0.17571625 0 0.58468014
0.18603918 0 0.5857811
0.1948766 0 0.58539194
0.20529269 0 0.58392227
0.21423237 0 0.58456594
0.22444907 0 0.5858475
0.2349129 0 0.58656067
0.24705818 0 0.5854187
0.25519201 0 0.58479804
0.26445648 0 0.585392
0.27694237 0 0.58547735
0.28651524 0 0.58529735
0.29636851 0 0.58556652
0.30421185 0 0.58511144
0.31439659 0 0.58570927
0.32468227 0 0.58446515
0.33433801 0 0.58561778
0.34477362 0 0.58533925
0.35513973 0 0.58486885
0.36513135 0 0.58560127
0.37541166 0 0.58472717
0.38510281 0 0.58509684
0.39461419 0 0.58636737
0.40000001 0.0063202679 0.58337206
-1.0615371e-17 0.015994567 0.58475333
0 0.019800112 0.5818767
0.39999998 0.015443233 0.58597159
0.40000004 0.01467962 0.58517992
0.00071378856 0.025989002 0.58549428
0.015381279 0.029999997 0.5893774
0.025454601 0.029999997 0.58655113
0.03807522 0.029999997 0.58050621
0.066550106 0.029999996 0.58434188
0.095829435 0.029999997 0.58752739
0.10793445 0.029999997 0.58411288
0.11526738 0.029999997 0.58087492
0.12464362 0.029999996 0.58510846
0.13524248 0.029999996 0.58596402
0.14604262 0.029999997 0.58482105
0.16578469 0.029999997 0.58569145
0.17688622 0.029999999 0.58385736
0.18379648 0.029999997 0.58494413
0.19453406 0.029999996 0.58335483
0.20523582 0.029999997 0.58883035
0.2183124 0.029999997 0.58124292
0.22901376 0.029999996 0.58547211
0.23571014 0.029999997 0.58591449
0.24502155 0.029999997 0.58630168
0.25535887 0.029999997 0.58450758
0.26565915 0.029999997 0.58342707
0.27405751 0.029999997 0.58525205
0.28582942 0.029999999 0.58457625
0.29379088 0.029999997 0.58539987
0.30548307 0.029999997 0.58481783
0.31221253 0.029999997 0.58628619
0.32291684 0.029999997 0.58924544
0.33496872 0.029999996 0.58443898
0.35365388 0.029999997 0.58933139
0.36142775 0.029999997 0.58360022
0.37321636 0.029999996 0.58238286
0.38478455 0.029999997 0.58536249
0.39572489 0.028653439 0.58491153
0.40000001 0.023233125 0.5853188
0.0055202353 0.030000001 0.58378947
0.015215908 0.030000001 0.58376944
0.026870042 0.029999999 0.58747101
0.035429198 0.030000001 0.58454812
0.043303747 0.029999999 0.58280534
0.055116653 0.029999999 0.58264142
0.062762596 0.030000001 0.5851658
0.075247511 0.029999999 0.58516026
0.08609499 0.030000001 0.58396232
0.09437836 0.030000001 0.58491063
0.10556795 0.030000001 0.58380008
0.11645057 0.030000001 0.58328164
0.12506105 0.029999999 0.5870378
0.13594486 0.029999999 0.58651757
0.14436087 0.030000001 0.58427072
0.15497744 0.030000001 0.58324754
0.16600357 0.030000001 0.5840075
0.17550433 0.030000001 0.58642519
0.18522348 0.030000001 0.58468401
0.19590008 0.030000001 0.58415347
0.20632261 0.030000001 0.58593249
0.21503827 0.030000001 0.58515847
0.22579594 0.029999999 0.58467728
0.23601381 0.030000001 0.58414608
0.244939 0.030000001 0.58593959
0.2554585 0.029999999 0.58494365
0.26592886 0.030000001 0.58520865
0.27649662 0.030000001 0.58637524
0.28622374 0.030000001 0.58564842
0.29680857 0.030000001 0.58642095
0.30484781 0.030000001 0.58506691
0.31306005 0.030000001 0.5861674
0.32626468 0.030000001 0.58361232
0.33330837 0.030000001 0.58359176
0.34411126 0.029999999 0.58569449
0.35466444 0.030000001 0.58330518
0.36428565 0.030000001 0.5842973
0.37445489 0.030000001 0.58421475
0.38633466 0.029999999 0.58297926
0.39364415 0.030000001 0.5850594
-5.5012983e-17 0.004247752 0.59250736
0.0059611802 0 0.59555215
0.013888572 0 0.59497964
0.024333531 0 0.59451354
0.03443915 0 0.59590358
0.044637077 0 0.5947125
0.054924536 0 0.59309006
0.064922318 0 0.59513509
0.075095341 0 0.59577793
0.084295563 0 0.59688419
0.093030214 0 0.59394383
0.10576694 0 0.59511274
0.11467449 0 0.59549177
0.12464444 0 0.59587634
0.13421717 0 0.59486222
0.14600046 0 0.59456027
0.15526709 0 0.5948332
0.16408931 0 0.59307772
0.17310075 0 0.59701627
0.18467611 0 0.59537381
0.19386867 0 0.59500879
0.20451607 0 0.59612226
0.21508981 0 0.5955143
0.22382034 0 0.59562546
0.2341122 0 0.59480548
0.24488819 0 0.59358799
0.25594136 0 0.59663957
0.26575366 0 0.5950442
0.27484271 0 0.59341818
0.28371799 0 0.59453344
0.29733279 0 0.59525335
0.30564043 0 0.59574044
0.31398931 0 0.59831506
0.32482865 0 0.59598404
0.33298066 0 0.59391177
0.34475791 0 0.59649992
0.35490078 0 0.59673595
0.36575487 0 0.5945977
0.3761557 0 0.59485155
0.38519719 0 0.59674203
0.39621431 0.00016720616 0.59532714
0.40000004 0.0056551578 0.59543014
-1.8488435e-17 0.014174201 0.5942722
0 0.019607356 0.59998012
0.40000004 0.014386644 0.59546012
0.0011970946 0.025811959 0.59483457
0.015600345 0.029999997 0.59498525
0.035119463 0.029999997 0.5973382
0.052859705 0.029999997 0.59415364
0.062367804 0.029999997 0.59892702
0.077365346 0.029999996 0.59623122
0.095847473 0.029999997 0.59451836
0.10199558 0.029999997 0.59560096
0.11535037 0.029999996 0.59396821
0.12378641 0.029999996 0.59574366
0.13049115 0.029999997 0.59233737
0.1563382 0.029999996 0.59498054
0.16448148 0.029999996 0.5913766
0.17389755 0.029999996 0.59386808
0.18229382 0.029999997 0.59711015
0.19381866 0.029999997 0.59560263
0.20650201 0.029999997 0.59546322
0.21646959 0.029999997 0.59429169
0.22441088 0.029999997 0.59490716
0.23259123 0.029999996 0.5936842
0.24633825 0.029999997 0.59317398
0.25335568 0.029999997 0.59524882
0.26514056 0.029999997 0.59560978
0.27574214 0.029999996 0.59567708
0.2880699 0.029999997 0.59510237
0.29119143 0.029999997 0.59547788
0.30444175 0.029999997 0.5978663
0.31470227 0.029999996 0.59579748
0.32152924 0.029999997 0.59615505
0.33410984 0.029999997 0.59504867
0.34419784 0.029999997 0.59665
0.35569626 0.029999997 0.59609306
0.36289743 0.029999996 0.59404546
0.37530628 0.029999996 0.59447306
0.3881771 0.029999997 0.59410369
0.397688 0.027909318 0.59836686
0.40000001 0.026386203 0.5940938
0.0047654235 0.030000001 0.59655046
0.014821917 0.030000001 0.59272927
0.022928307 0.030000001 0.59457511
0.035936184 0.030000001 0.59493566
0.044104863 0.030000001 0.59367722
0.055605561 0.030000001 0.59657627
0.064673379 0.029999999 0.59504235
0.073632203 0.029999999 0.59648842
0.085079066 0.030000001 0.59455425
0.095230483 0.030000001 0.5951522
0.10654397 0.030000001 0.59300464
0.11596058 0.029999997 0.59395063
0.12522754 0.029999997 0.59534967
0.13385655 0.030000001 0.59484082
0.14500861 0.029999999 0.59493285
0.15706399 0.030000001 0.59830391
0.16572666 0.030000001 0.59521675
0.17675984 0.030000001 0.59472191
0.18455569 0.030000001 0.59477741
0.19792138 0.030000001 0.59205925
0.20375812 0.030000001 0.59472334
0.2146522 0.030000001 0.59312135
0.22726421 0.030000001 0.59294999
0.23481794 0.030000001 0.59495801
0.2442283 0.030000001 0.59415597
0.25294405 0.030000001 0.59493536
0.26514667 0.030000001 0.59612328
0.27702361 0.029999999 0.59519506
0.28440338 0.030000001 0.59480178
0.29471785 0.029999997 0.59488887
0.3042523 0.030000001 0.59614515
0.31442159 0.030000001 0.59437841
0.32468873 0.030000001 0.5962081
0.3342444 0.030000001 0.59393978
0.34508657 0.030000001 0.59561807
0.3558315 0.030000001 0.59715819
0.36320627 0.030000001 0.59537768
0.37651789 0.030000001 0.59594738
0.38637272 0.030000001 0.59540451
0.39591146 0.030000001 0.59297955
-4.981818e-17 0.0060679573 0.60541844
0.0054132263 0 0.60554308
0.016058324 0 0.60687572
0.025121102 0 0.6039694
0.03372854 0 0.60565698
0.045115739 0 0.6045391
0.053823125 0 0.60443211
0.065506324 0 0.60465235
0.07342542 0 0.60537708
0.084490299 0 0.60553718
0.095058955 0 0.60507578
0.10586105 0 0.60463864
0.11391851 0 0.60565597
0.12474494 0 0.6053471
0.13347597 0 0.6062727
0.14478411 0 0.60491949
0.154284 0 0.60519785
0.16517711 0 0.60611439
0.17524716 0 0.60360247
0.18579626 0 0.60297441
0.19560085 0 0.6046586
0.20545144 0 0.60560304
0.21446782 0 0.60501522
0.2259367 0 0.60501939
0.23410814 0 0.60512179
0.24633686 0 0.60339582
0.25641268 0 0.60641819
0.26417509 0 0.60578513
0.27546427 0 0.60653138
0.28329983 0 0.60580504
0.29618818 0 0.60405296
0.30684081 0 0.60431468
0.3156057 0 0.60504997
0.32568449 0 0.60444325
0.33503935 0 0.60424238
0.34368727 0 0.60280323
0.35660258 0 0.60448015
0.36738953 0 0.6028074
0.37423673 0 0.60597229
0.3851741 0 0.60448855
0.39544109 0.0010151472 0.60387069
0.40000007 0.0068747723 0.60353637
-1.7103989e-17 0.014850173 0.60363024
0.40000004 0.015096167 0.60540831
0.0012607415 0.025472157 0.60416579
0.015679499 0.029999996 0.60204285
0.02460216 0.029999997 0.60652488
0.030209346 0.029999997 0.60634243
0.045542423 0.029999997 0.6015743
0.053995531 0.029999997 0.60672843
0.065326899 0.029999996 0.6025995
0.075534776 0.029999997 0.60339504
0.085310899 0.029999997 0.60616934
0.093256637 0.029999997 0.60582423
0.10269255 0.029999997 0.6047731
0.11401038 0.029999997 0.60542518
0.12411962 0.029999996 0.60672265
0.13570029 0.029999997 0.60855436
0.14626484 0.029999996 0.6015144
0.15545715 0.029999997 0.60477245
0.16246505 0.029999997 0.60358775
0.17305255 0.029999999 0.60539639
0.18735723 0.029999997 0.6022144
0.19073954 0.029999997 0.60237384
0.20365679 0.029999996 0.60781813
0.21573074 0.029999996 0.60439992
0.22323808 0.029999997 0.60616505
0.23545878 0.029999997 0.60914755
0.24791858 0.029999997 0.60512477
0.25810239 0.029999997 0.60224152
0.26461715 0.029999997 0.6061123
0.27033222 0.029999997 0.60739189
0.28667501 0.029999997 0.60391843
0.29352146 0.029999997 0.60691005
0.30385765 0.029999996 0.60250205
0.3193588 0.029999997 0.60239655
0.32103693 0.029999997 0.60620332
0.33575559 0.029999996 0.6067977
0.3428033 0.029999997 0.60457301
0.3529669 0.029999996 0.60169595
0.37490454 0.029999996 0.60295248
0.3829163 0.029999997 0.60659975
0.39668381 0.02869709 0.60535949
0.40000001 0.02538994 0.60204816
0.0043217912 0.030000001 0.60844946
0.013701845 0.030000001 0.60661584
0.022953814 0.030000001 0.60409164
0.034033686 0.029999997 0.60260874
0.043980725 0.030000001 0.60421187
0.055353403 0.030000001 0.60488421
0.065965958 0.029999999 0.60397679
0.075933211 0.030000001 0.60507262
0.085741095 0.030000001 0.60432762
0.0934029 0.030000001 0.60336012
0.10514301 0.030000001 0.60593563
0.11455545 0.030000001 0.60514742
0.12671967 0.030000001 0.60680848
0.13397343 0.030000001 0.605326
0.14470954 0.030000001 0.60486698
0.15523437 0.030000001 0.60726744
0.16550824 0.030000001 0.60493594
0.17748237 0.030000001 0.60424525
0.18476798 0.030000001 0.60483235
0.19408789 0.030000001 0.60475683
0.20615897 0.030000001 0.60449249
0.21304616 0.030000001 0.60345399
0.22548224 0.030000001 0.6055088
0.23743829 0.030000001 0.60558665
0.24314527 0.030000001 0.60522938
0.25197569 0.030000001 0.60707855
0.26409906 0.030000001 0.60503346
0.27611867 0.029999999 0.6060645
0.28506827 0.030000001 0.60479903
0.29440451 0.030000001 0.60426617
0.30573326 0.030000001 0.60498196
0.31351343 0.030000001 0.60466671
0.32521892 0.030000001 0.6061731
0.33579567 0.030000001 0.60511166
0.34345695 0.030000001 0.60282785
0.35486895 0.030000001 0.60431159
0.36538997 0.030000001 0.60619462
0.37369177 0.029999999 0.60453594
0.38501334 0.030000001 0.60423166
0.39763728 0.030000001 0.60365158
-5.2294547e-17 0.0057313661 0.61572784
0.0048952047 0 0.61302143
0.013979132 0 0.61470062
0.024591064 0 0.61471283
0.032629438 0 0.61785668
0.045224641 0 0.61682236
0.054149631 0 0.61502385
0.065615408 0 0.61441875
0.074271686 0 0.61362243
0.085154958 0 0.61404568
0.095761396 0 0.61590594
0.10437267 0 0.61345279
0.11437782 0 0.61421901
0.12422454 0 0.61562616
0.13556041 0 0.61536503
0.14499152 0 0.61444104
0.15545404 0 0.614335
0.16539489 0 0.61509824
0.17665139 0 0.61591947
0.18511267 0 0.61453408
0.19478199 0 0.61568379
0.20682864 0 0.6149025
0.21457717 0 0.61379403
0.22620839 0 0.61521447
0.23514812 0 0.61557621
0.24552003 0 0.61419475
0.25456065 0 0.61412704
0.2644079 0 0.61552995
0.27521378 0 0.61405581
0.28434718 0 0.61526239
0.29586083 0 0.61349344
0.30439323 0 0.61553907
0.31467786 0 0.61490077
0.32383126 0 0.61567634
0.33668977 0 0.61687636
0.34453017 0 0.61441094
0.35350367 0 0.61364067
0.36330423 0 0.61555582
0.37511405 0 0.61513007
0.38459238 0 0.61530113
0.39446148 0.00014081488 0.61439431
0.40000004 0.0052680904 0.61478829
-1.7370622e-17 0.015143899 0.61496931
0.39999998 0.016516287 0.61874068
0.40000001 0.015058565 0.61506164
0 0.024757873 0.61508924
0.015696468 0.029999997 0.61756837
0.025246006 0.029999997 0.61133355
0.034738973 0.029999997 0.61723709
0.046184871 0.029999997 0.61518025
0.065561466 0.029999997 0.61535448
0.07466723 0.029999997 0.61407125
0.086521983 0.029999997 0.61774892
0.09705355 0.029999997 0.61461282
0.10650057 0.029999997 0.61710638
0.11166712 0.029999997 0.61331666
0.12488821 0.029999997 0.61039805
0.1356571 0.029999997 0.61653006
0.14270456 0.029999996 0.61403197
0.15295599 0.029999996 0.61311913
0.16265987 0.029999997 0.61388665
0.17607386 0.029999997 0.61531091
0.18651819 0.029999997 0.61148405
0.19265947 0.029999997 0.61598599
0.20416357 0.029999996 0.61794752
0.21270899 0.029999997 0.61417097
0.22678743 0.029999997 0.61379468
0.2365692 0.029999997 0.6158886
0.2464911 0.029999997 0.617428
0.2522054 0.029999997 0.61576271
0.26385322 0.029999997 0.61762381
0.27084503 0.029999997 0.61983889
0.28186423 0.029999997 0.61748362
0.29898664 0.029999997 0.61161458
0.30514911 0.029999996 0.61208367
0.31667775 0.029999997 0.6134963
0.32488543 0.029999997 0.61873114
0.33247253 0.029999996 0.61837244
0.34108394 0.029999997 0.61564553
0.35304531 0.029999997 0.61418754
0.36145851 0.029999997 0.61795664
0.37884629 0.029999997 0.61038709
0.38702077 0.029999997 0.61369681
0.39891851 0.029999997 0.61629236
0.40000007 0.02621636 0.61260945
0.0061657107 0.030000001 0.61181331
0.014288459 0.030000001 0.61566198
0.024986943 0.030000001 0.61613595
0.035255309 0.030000001 0.61470813
0.046168167 0.029999999 0.61371207
0.055341195 0.030000001 0.61389339
0.066723816 0.030000001 0.6151486
0.076652899 0.029999999 0.61635804
0.087458573 0.029999999 0.61227226
0.0907121 0.030000001 0.61402673
0.10507403 0.030000001 0.61341941
0.11418498 0.030000001 0.61841834
0.1246053 0.029999997 0.6152907
0.13784273 0.030000001 0.61351699
0.14477003 0.029999999 0.61586481
0.15661481 0.030000001 0.61310565
0.16692728 0.030000001 0.61500144
0.17467946 0.030000001 0.61343676
0.1835928 0.030000001 0.61468565
0.19495395 0.030000001 0.61550248
0.20464389 0.030000001 0.61606103
0.21344167 0.030000001 0.61526901
0.22490367 0.030000001 0.61434907
0.2359207 0.030000001 0.61487585
0.24170114 0.030000001 0.61521304
0.25418645 0.030000001 0.61372894
0.26476875 0.030000001 0.61643505
0.27483323 0.030000001 0.61504078
0.28602853 0.030000001 0.61471653
0.29527098 0.030000001 0.61398131
0.30606285 0.030000001 0.61542195
0.31433684 0.029999999 0.61531305
0.32441935 0.030000001 0.61412793
0.33476812 0.030000001 0.61521417
0.34390199 0.030000001 0.61520475
0.3550213 0.030000001 0.61623091
0.36264881 0.030000001 0.61725533
0.3753182 0.030000001 0.61401206
0.38331458 0.030000001 0.61727744
0.39551786 0.029999999 0.61454785
-5.8009534e-17 0.0044916277 0.62516862
0.0065090219 0 0.62360817
0.013723274 0 0.62503731
0.023938447 0 0.62434709
0.03574672 0 0.62612104
0.043831296 0 0.62484199
0.05505456 0 0.62469202
0.064494789 0 0.6241886
0.07388293 0 0.62565112
0.085644685 0 0.62498343
0.095919482 0 0.62531447
0.10502996 0 0.62565225
0.11471965 0 0.62566239
0.1244301 0 0.62544006
0.13504662 0 0.62607467
0.14467961 0 0.6247682
0.15453118 0 0.62335426
0.16453566 0 0.62493008
0.17613667 0 0.62514323
0.18410975 0 0.62503737
0.1958002 0 0.62565088
0.20613934 0 0.62478507
0.21220811 0 0.62436634
0.22480997 0 0.62568218
0.23466712 0 0.62503153
0.24499349 0 0.62409228
0.25391349 0 0.62542176
0.2637026 0 0.62459928
0.27548581 0 0.6249696
0.28385958 0 0.62543696
0.29531267 0 0.62628007
0.30433223 0 0.62555528
0.31430063 0 0.62458014
0.32621834 0 0.62426746
0.33686212 0 0.62670517
0.34586468 0 0.62415969
0.35324025 0 0.62381393
0.36553019 0 0.62522978
0.3770062 0 0.62462032
0.38680243 0 0.62445039
0.39386666 0 0.62618154
0.40000001 0.003781219 0.62598318
-1.9567573e-17 0.014867297 0.62479782
0.40000007 0.016315768 0.62447828
-3.0930599e-19 0.020043397 0.6239363
0.00074968679 0.026677964 0.62589955
0.010596779 0.029999997 0.62824786
0.023339421 0.029999997 0.62657547
0.038905818 0.029999996 0.62842447
0.047255617 0.029999997 0.62756348
0.059945107 0.029999997 0.62049985
0.064723827 0.029999996 0.62512642
0.07664983 0.029999997 0.62311399
0.08487542 0.029999997 0.62472904
0.11545722 0.029999997 0.62913847
0.12633838 0.029999997 0.62735832
0.14311254 0.029999997 0.62446451
0.15585284 0.029999997 0.62400359
0.16232672 0.029999997 0.6248529
0.1772767 0.029999997 0.62414473
0.18279743 0.029999997 0.62750745
0.19565164 0.029999996 0.62183654
0.20080678 0.029999997 0.62543285
0.22257988 0.029999997 0.62239242
0.23381841 0.029999996 0.62614506
0.24645217 0.029999999 0.62674373
0.25358555 0.029999999 0.62520915
0.26604521 0.029999999 0.62463588
0.27382833 0.029999997 0.62218934
0.28227603 0.029999997 0.62530529
0.29617941 0.029999997 0.62461662
0.31675482 0.029999997 0.62914056
0.32872018 0.029999997 0.62444651
0.33590528 0.029999996 0.62398428
0.34597585 0.029999997 0.62620372
0.37198779 0.029999997 0.62536412
0.38621181 0.029999997 0.62476695
0.3959941 0.027591355 0.62100422
0.40000004 0.027060568 0.62814891
0.004632365 0.030000001 0.62865579
0.014355467 0.030000001 0.62490875
0.024420314 0.030000001 0.62471175
0.035119914 0.030000001 0.62250775
0.045468438 0.030000001 0.62621552
0.055946894 0.030000001 0.62591481
0.063612796 0.030000001 0.62735963
0.075224571 0.030000001 0.62340778
0.083785236 0.029999999 0.62494582
0.094598792 0.030000001 0.62480617
0.10626706 0.030000001 0.62588924
0.11490273 0.030000001 0.62610632
0.13335156 0.030000001 0.62479419
0.14508647 0.030000001 0.62512672
0.15591699 0.030000001 0.62549657
0.16561876 0.030000001 0.62363476
0.17594157 0.030000001 0.62399316
0.18254147 0.030000001 0.62682444
0.19500665 0.030000001 0.62523544
0.20621687 0.030000001 0.62521517
0.21432367 0.030000001 0.62637854
0.2262352 0.030000001 0.62543309
0.23458065 0.030000001 0.6249944
0.24480255 0.030000001 0.62780231
0.25571495 0.030000001 0.62422067
0.26460776 0.030000001 0.62461716
0.27495453 0.030000001 0.62110978
0.28649098 0.030000001 0.62351722
0.29494426 0.030000001 0.62400228
0.30611414 0.030000001 0.62555301
0.31313688 0.030000001 0.62536317
0.32612917 0.030000001 0.62298572
0.33468246 0.030000001 0.62451524
0.34341204 0.030000001 0.6246618
0.35626373 0.030000001 0.62442595
0.36525431 0.030000001 0.62526548
0.37437665 0.030000001 0.62478769
0.38523602 0.030000001 0.62591165
0.39674133 0.030000001 0.62460756
-5.7166571e-17 0.0050237887 0.63460439
0.003393061 0 0.6327135
0.014635607 0 0.63588279
0.024650915 0 0.63520187
0.035111863 0 0.63550448
0.045128033 0 0.63460451
0.055270776 0 0.63552868
0.064941317 0 0.63617998
0.075439669 0 0.63768971
0.084174588 0 0.63693184
0.094249144 0 0.6365633
0.1065976 0 0.63404632
0.11556306 0 0.63468635
0.12377309 0 0.63585609
0.13503639 0 0.63531142
0.14666051 0 0.63681531
0.15533392 0 0.6321891
0.16561651 0 0.63435757
0.17493996 0 0.63359594
0.18542095 0 0.63531154
0.1949818 0 0.63506681
0.20383517 0 0.63603163
0.21543661 0 0.6350432
0.22386415 0 0.6346668
0.23336434 0 0.63557357
0.24400736 0 0.63581848
0.25619417 0 0.63313907
0.26638895 0 0.63513666
0.27480143 0 0.63470304
0.28619289 0 0.63454485
0.2963056 0 0.63409996
0.30550462 0 0.63373893
0.31206629 0 0.63475859
0.32572412 0 0.63846952
0.33543503 0 0.63507754
0.34368321 0 0.63539481
0.35548782 0 0.63471246
0.36525744 0 0.63486248
0.37455589 0 0.63583595
0.38400856 0 0.63547713
0.39404643 0 0.63598198
0.40000007 0.0057283151 0.63547546
-1.8490709e-17 0.01550735 0.63561893
0.40000007 0.014104143 0.63580042
0.0023633279 0.027589062 0.63526177
0.014313767 0.029999997 0.63450849
0.024064673 0.029999997 0.63552988
0.034879472 0.029999997 0.63602191
0.0481079 0.029999997 0.63564336
0.055707142 0.029999996 0.63654405
0.064407013 0.029999997 0.63756889
0.084536776 0.029999997 0.63603175
0.095537074 0.029999997 0.63486797
0.10275383 0.029999999 0.63503951
0.11607003 0.029999997 0.63290542
0.12565251 0.029999999 0.63597637
0.13484825 0.029999997 0.63462889
0.14357917 0.029999997 0.63694066
0.15607844 0.029999997 0.63294494
0.16739453 0.029999997 0.63586146
0.17476806 0.029999997 0.63434052
0.1860003 0.029999999 0.63408881
0.19488174 0.029999997 0.63515556
0.2105636 0.029999996 0.63770932
0.22614715 0.029999997 0.63524771
0.23560369 0.029999999 0.63542461
0.24543399 0.029999997 0.63430196
0.25540772 0.029999997 0.63590366
0.26640424 0.029999997 0.63617629
0.27777302 0.029999997 0.634233
0.28707197 0.029999999 0.63338584
0.29295486 0.029999997 0.63427508
0.30371198 0.029999997 0.63566065
0.31784877 0.029999996 0.63247418
0.32483158 0.029999996 0.63775688
0.33797577 0.029999997 0.63123393
0.34428224 0.029999996 0.63420916
0.35597503 0.029999997 0.6332525
0.36603013 0.029999997 0.6341657
0.37203068 0.029999997 0.63451368
0.39808056 0.027046621 0.63581789
0.40000007 0.024227418 0.63536096
0.004853975 0.030000001 0.63443786
0.014945117 0.030000001 0.6335305
0.02576874 0.030000001 0.63517702
0.034997724 0.030000001 0.63403124
0.045492899 0.030000001 0.63507146
0.054831546 0.030000001 0.63351309
0.065488271 0.030000001 0.63552368
0.074467734 0.029999999 0.63451022
0.084687434 0.030000001 0.63495713
0.093917608 0.030000001 0.63524753
0.10454042 0.030000001 0.63700068
0.11441822 0.030000001 0.63598293
0.12606563 0.030000001 0.63469094
0.13592719 0.030000001 0.63372225
0.1459156 0.030000001 0.63484406
0.15565038 0.030000001 0.63570118
0.16635014 0.030000001 0.63251925
0.17566699 0.030000001 0.63533616
0.18454851 0.030000001 0.63585842
0.19492865 0.030000001 0.63542682
0.20451061 0.030000001 0.63420391
0.21523748 0.030000001 0.63405526
0.22540662 0.030000001 0.63476241
0.23329687 0.030000001 0.63532758
0.24520199 0.030000001 0.63470542
0.25785318 0.030000001 0.63471538
0.26546469 0.030000001 0.63399881
0.27468008 0.030000001 0.63369107
0.28534147 0.030000001 0.63579816
0.295221 0.030000001 0.63549054
0.30382487 0.030000001 0.63519311
0.31300437 0.029999997 0.6347245
0.32707766 0.030000001 0.63469309
0.33591849 0.029999999 0.63547724
0.34405339 0.030000001 0.63580155
0.35419995 0.030000001 0.63568515
0.36525598 0.030000001 0.63569969
0.3786273 0.030000001 0.63827002
0.38218117 0.029999999 0.63240016
0.39489752 0.030000001 0.63467515
-6.3862552e-17 0.0035675869 0.6455524
0.0072442354 0 0.64357412
0.015042189 0 0.64436698
0.025293499 0 0.64607483
0.033108741 0 0.64436913
0.044451416 0 0.64391375
0.054049082 0 0.6459766
0.06468372 0 0.64479703
0.07470306 0 0.64401859
0.084892124 0 0.64501941
0.095099889 0 0.64494771
0.10610437 0 0.64465767
0.11619199 0 0.64558089
0.12458331 0 0.64595705
0.13473101 0 0.64572477
0.14464743 0 0.64388514
0.15297771 0 0.64425212
0.16522981 0 0.64468366
0.17373253 0 0.64510638
0.18694851 0 0.64579582
0.19440596 0 0.64490139
0.20490116 0 0.64505541
0.21513034 0 0.64383453
0.22533175 0 0.64439988
0.23522335 0 0.64575619
0.24491234 0 0.64611173
0.25579056 0 0.64792264
0.26389584 0 0.64658487
0.27503636 0 0.64254147
0.2859118 0 0.64494377
0.29635218 0 0.64411044
0.3046076 0 0.64480346
0.31586146 0 0.64378542
0.32350466 0 0.64583981
0.33553797 0 0.64564252
0.3456949 0 0.64453697
0.35532561 0 0.6444335
0.36600694 0 0.64418525
0.37564021 0 0.64507711
0.38469943 0 0.64622575
0.39582282 0 0.64534032
0.40000004 0.0033479787 0.64465266
-1.5607065e-17 0.016595468 0.64519513
0.40000004 0.014181083 0.64402074
-2.38468e-18 0.020205902 0.64635873
0.00073318533 0.027076844 0.64483994
0.025268026 0.029999997 0.64541698
0.033642299 0.029999997 0.64767075
0.045547601 0.029999997 0.64439762
0.054754224 0.029999997 0.64064479
0.065381519 0.029999997 0.64606816
0.073234886 0.029999997 0.645666
0.086815223 0.029999999 0.64489591
0.09355174 0.029999997 0.64670563
0.10503002 0.029999997 0.64025635
0.1103797 0.029999997 0.6440351
0.14471987 0.029999997 0.64363641
0.15413156 0.029999996 0.64543492
0.16511573 0.029999997 0.64360636
0.174869 0.029999997 0.64330745
0.18456104 0.029999997 0.64395446
0.19526328 0.029999996 0.64412814
0.20688923 0.029999996 0.64469141
0.21690692 0.029999997 0.6455375
0.22455259 0.029999996 0.6444158
0.23456009 0.029999997 0.64351541
0.24596976 0.029999997 0.64249313
0.25588533 0.029999996 0.64519811
0.26315999 0.029999997 0.64543855
0.27711007 0.029999996 0.64625376
0.28315869 0.029999996 0.64485008
0.29610145 0.029999999 0.64466912
0.30661663 0.029999997 0.64799041
0.31753632 0.029999996 0.64764136
0.32298848 0.029999996 0.64201385
0.33432129 0.029999997 0.64374816
0.34310454 0.029999997 0.64662266
0.36391976 0.029999999 0.64476675
0.37242141 0.029999997 0.64586878
0.38494131 0.029999996 0.64769876
0.39639041 0.02779985 0.64657706
0.40000007 0.025324585 0.64575124
0.0061491719 0.030000001 0.64580899
0.017685801 0.030000001 0.64427602
0.024075747 0.029999999 0.64535624
0.034549873 0.030000001 0.64366168
0.046043247 0.030000001 0.645235
0.055653755 0.030000001 0.64639091
0.063654564 0.030000001 0.64441299
0.077015303 0.030000001 0.64338714
0.084172815 0.030000001 0.64574188
0.094226323 0.030000001 0.64650238
0.10389008 0.030000001 0.64390898
0.11257602 0.030000001 0.64517969
0.12397522 0.029999999 0.64368856
0.13792926 0.030000001 0.64341843
0.14632744 0.030000001 0.64457804
0.15662244 0.030000001 0.6467464
0.16543978 0.029999997 0.64402443
0.17410044 0.029999999 0.64376086
0.18467402 0.030000001 0.64453417
0.19322257 0.030000001 0.64390707
0.20367062 0.029999999 0.64504915
0.21544793 0.030000001 0.64526093
0.22437251 0.030000001 0.64393634
0.23613647 0.030000001 0.64428937
0.24494044 0.029999999 0.64425772
0.2524997 0.030000001 0.64355022
0.2664367 0.030000001 0.6458115
0.27126652 0.030000001 0.64819908
0.28605264 0.030000001 0.64552355
0.29434282 0.030000001 0.64373636
0.30632466 0.030000001 0.64519846
0.31454757 0.030000001 0.64618385
0.32369828 0.030000001 0.64676249
0.33408281 0.030000001 0.64799017
0.34544539 0.030000001 0.64430588
0.35462686 0.029999999 0.64409119
0.36404613 0.030000001 0.64457226
0.37442601 0.030000001 0.64341563
0.38527548 0.030000001 0.64567506
0.39390227 0.030000001 0.64687979
-5.1551051e-17 0.0072529009 0.65666735
0.00423072 0 0.65448213
0.014881243 0 0.65519291
0.024385652 0 0.65473199
0.034813091 0 0.65444064
0.046236601 0 0.65591878
0.056004342 0 0.65359753
0.064943589 0 0.65508991
0.075518429 0 0.65551329
0.083893739 0 0.65690637
0.093681842 0 0.65524954
0.1057603 0 0.65563637
0.11496774 0 0.65417308
0.12503274 0 0.657184
0.1356909 0 0.65370482
0.14489543 0 0.65421039
0.15529513 0 0.65670443
0.166455 0 0.65406746
0.17616412 0 0.65439951
0.18542472 0 0.65470934
0.19615752 0 0.65526211
0.2043853 0 0.65313399
0.21470785 0 0.65538639
0.2250686 0 0.65516114
0.2371204 0 0.65257442
0.24418312 0 0.65646315
0.25409001 0 0.65378618
0.26484692 0 0.65408415
0.27502137 0 0.65545326
0.28443712 0 0.65466046
0.29456884 0 0.65312779
0.30626056 0 0.65493655
0.31461591 0 0.65620893
0.32489312 0 0.65566295
0.33524418 0 0.65307039
0.34633043 0 0.65522331
0.35431075 0 0.65347046
0.36373925 0 0.65531683
0.37464443 0 0.65391058
0.38390347 0 0.65314335
0.3969509 0.0017156012 0.65483582
0.40000004 0.004195977 0.65581524
-2.2108195e-17 0.01516268 0.65523666
0.39999998 0.018189693 0.65374464
0.40000007 0.014529618 0.65522581
-1.2992228e-18 0.020777218 0.65497696
0.0022754774 0.026509557 0.65503627
0.015474247 0.029999997 0.6553542
0.026399896 0.029999997 0.65371782
0.03495349 0.029999997 0.65213823
0.045382839 0.029999997 0.65377718
0.054188579 0.029999997 0.65578485
0.062856622 0.029999996 0.65627992
0.076129861 0.029999999 0.65196007
0.085175358 0.029999999 0.65735626
0.096728615 0.029999997 0.65579534
0.10290352 0.029999997 0.65426713
0.11695167 0.029999999 0.6541537
0.12719342 0.029999997 0.65418023
0.13301641 0.029999997 0.65757591
0.14776351 0.029999997 0.65193832
0.1581157 0.029999997 0.65579832
0.1634758 0.029999996 0.65385467
0.17280065 0.029999996 0.65726095
0.18571991 0.029999997 0.6518659
0.19218804 0.029999997 0.65360749
0.20943967 0.029999997 0.65149397
0.21085048 0.029999997 0.65685403
0.22516441 0.029999997 0.65213537
0.2335014 0.029999997 0.65401626
0.24673718 0.029999997 0.65469593
0.25394496 0.029999997 0.65307093
0.26381052 0.029999997 0.65390235
0.27494872 0.029999997 0.65353572
0.28450555 0.029999997 0.6557852
0.29333019 0.029999997 0.65304559
0.30719692 0.029999997 0.65819925
0.3167994 0.029999997 0.6540764
0.32360932 0.029999996 0.65910393
0.33063099 0.029999997 0.65356177
0.34139049 0.029999997 0.65351802
0.35316449 0.029999997 0.65494263
0.37760171 0.029999997 0.65113521
0.38882846 0.029999997 0.6587978
0.39803079 0.027815489 0.65351802
0.40000004 0.026810272 0.65412778
0.0051734201 0.029999999 0.6556831
0.016122408 0.030000001 0.65347332
0.023905968 0.030000001 0.65632415
0.035572316 0.030000001 0.65509254
0.044501644 0.030000001 0.65622693
0.054353882 0.029999999 0.65484881
0.066214398 0.030000001 0.65289688
0.074420035 0.030000001 0.65367424
0.085832141 0.029999999 0.65763342
0.095423862 0.030000001 0.65277225
0.10444932 0.030000001 0.65364039
0.11454933 0.030000001 0.65253353
0.12371597 0.030000001 0.65471244
0.13119566 0.029999999 0.65789038
0.14502133 0.030000001 0.65443921
0.15448669 0.030000001 0.65390253
0.16529128 0.029999999 0.65449882
0.17585588 0.030000001 0.65380383
0.1837638 0.030000001 0.65350091
0.19577454 0.030000001 0.65402651
0.20399694 0.029999999 0.65652138
0.2176284 0.030000001 0.65674895
0.22213905 0.030000001 0.65723455
0.23668447 0.030000001 0.65498626
0.24684942 0.030000001 0.65331149
0.25474358 0.030000001 0.65447772
0.26833409 0.030000001 0.65607244
0.27293423 0.030000001 0.65643394
0.28565192 0.030000001 0.6565848
0.29639572 0.030000001 0.65815496
0.3057822 0.030000001 0.65719897
0.31362996 0.030000001 0.65576023
0.32609564 0.030000001 0.65579826
0.33437017 0.030000001 0.65542579
0.34724969 0.030000001 0.65445375
0.35451701 0.030000001 0.65302318
0.36430764 0.030000001 0.6537205
0.37510481 0.030000001 0.65315729
0.3862153 0.030000001 0.653023
0.39338604 0.030000001 0.65585786
-5.751222e-17 0.0059048338 0.66481221
0.0064070271 0 0.66577196
0.01434168 0 0.66352165
0.02467623 0 0.6647644
0.03507816 0 0.66512758
0.044688102 0 0.66579783
0.056109745 0 0.66596615
0.065552145 0 0.66425222
0.074981153 0 0.66538638
0.08551199 0 0.66449839
0.093871437 0 0.66418743
0.10344271 0 0.66321802
0.11658961 0 0.6668123
0.12665524 0 0.66555959
0.13405453 0 0.66530609
0.14418374 0 0.66611767
0.15464146 0 0.66535819
0.1644062 0 0.66505533
0.17658256 0 0.66518259
0.18448274 0 0.66438514
0.19728844 0 0.66504145
0.20638445 0 0.66459358
0.21497779 0 0.66493869
0.22441091 0 0.66464561
0.23477632 0 0.66488397
0.24732587 0 0.6647386
0.25626338 0 0.66595852
0.26453999 0 0.66474396
0.27534655 0 0.66544062
0.2855379 0 0.66342551
0.29660884 0 0.66483653
0.3086004 0 0.66697037
0.31469989 0 0.66708714
0.32443953 0 0.6659568
0.33448496 0 0.6650809
0.34504819 0 0.66519618
0.35453907 0 0.66642708
0.36461005 0 0.66578937
0.37687311 0 0.66301495
0.38569751 0 0.66416132
0.3951073 0 0.66541481
0.40000004 0.0048920847 0.66438156
-2.9506925e-17 0.013559359 0.66751075
0.40000004 0.013359308 0.66501516
0.00070141471 0.026245728 0.66388017
0.023014434 0.029999997 0.66208494
0.03333104 0.029999997 0.66033947
0.043679781 0.029999997 0.66625845
0.056426976 0.029999997 0.66313708
0.065927878 0.029999999 0.66555363
0.074354634 0.029999997 0.66633332
0.086498976 0.029999997 0.66481572
0.092935041 0.029999997 0.66003561
0.10368469 0.029999997 0.66182923
0.11321381 0.029999997 0.6637063
0.12368347 0.029999996 0.66610336
0.13456216 0.029999997 0.66657937
0.14991024 0.029999997 0.66362607
0.15394355 0.029999996 0.66480678
0.17532361 0.029999997 0.66695857
0.18598509 0.029999997 0.66640031
0.19798073 0.029999997 0.66472346
0.20568383 0.029999997 0.66449416
0.21174639 0.029999997 0.66418725
0.22819053 0.029999997 0.66613221
0.23224854 0.029999997 0.66290164
0.24253304 0.029999997 0.66532063
0.25612289 0.029999999 0.66401714
0.26559374 0.029999997 0.66565645
0.27090096 0.029999997 0.66619104
0.28612885 0.029999996 0.66883689
0.29479036 0.029999997 0.66485822
0.30338222 0.029999997 0.66506732
0.31463781 0.029999996 0.66801494
0.32580951 0.029999999 0.66462129
0.33554327 0.029999997 0.66680217
0.34705994 0.029999999 0.6657446
0.39999998 0.023951281 0.6646902
0.40000004 0.025458178 0.66512698
0.005084571 0.030000001 0.6641103
0.014803767 0.030000001 0.66269696
0.025950996 0.030000001 0.66511208
0.034727708 0.029999999 0.66538072
0.045037236 0.030000001 0.66706181
0.055663604 0.030000001 0.66738319
0.064440936 0.029999999 0.66417599
0.075428881 0.030000001 0.66472381
0.086642362 0.030000001 0.66389781
0.094795495 0.030000001 0.66419977
0.10390043 0.030000001 0.66657054
0.11338849 0.030000001 0.66532749
0.12772499 0.030000001 0.66172594
0.136299 0.030000001 0.66302198
0.14405079 0.030000001 0.66559249
0.15698418 0.030000001 0.66545105
0.16326003 0.030000001 0.66414285
0.17351507 0.030000001 0.66535908
0.18229552 0.029999997 0.66477454
0.19493613 0.030000001 0.66479123
0.20694399 0.030000001 0.66552889
0.21502882 0.030000001 0.66350603
0.22612232 0.030000001 0.66482788
0.23614542 0.030000001 0.66472989
0.24435911 0.030000001 0.66503555
0.25537342 0.030000001 0.66414326
0.2659581 0.030000001 0.66388434
0.27474856 0.030000001 0.66581702
0.28451008 0.030000001 0.6649316
0.29928216 0.029999999 0.66505325
0.30601463 0.030000001 0.66593224
0.31477624 0.030000001 0.66464949
0.32571909 0.029999999 0.66362453
0.33407155 0.030000001 0.66780311
0.3431139 0.030000001 0.66418201
0.35460934 0.029999997 0.66432899
0.36590853 0.030000001 0.6639502
0.37616014 0.030000001 0.66566414
0.38579947 0.029999999 0.66519988
0.39585161 0.030000001 0.66572243
-6.4354083e-17 0.0044028191 0.6755619
0.0054294793 0 0.67554921
0.014649168 0 0.67514312
0.025045272 0 0.67388016
0.035417922 0 0.6747126
0.044608667 0 0.67604578
0.055520091 0 0.67185301
0.064689919 0 0.67335582
0.076333255 0 0.67489964
0.085041031 0 0.67390144
0.095117137 0 0.67371839
0.10392339 0 0.67503512
0.11615109 0 0.67518014
0.12579401 0 0.67539448
0.1336792 0 0.67677146
0.14416099 0 0.6760608
0.15499447 0 0.67557478
0.16410986 0 0.6740042
0.17549968 0 0.67460543
0.18409772 0 0.67556077
0.19539584 0 0.6735512
0.20512073 0 0.67481601
0.21508105 0 0.67460984
0.22409524 0 0.67419863
0.23506641 0 0.67345309
0.24677482 0 0.67457688
0.25501877 0 0.67405224
0.26525679 0 0.67479056
0.27375281 0 0.67510015
0.2858564 0 0.67659438
0.29565448 0 0.6737389
0.30349076 0 0.67592782
0.31542251 0 0.67489964
0.32589057 0 0.67678642
0.33639863 0 0.67459571
0.34449095 0 0.67561215
0.35343343 0 0.67639953
0.36443526 0 0.6747995
0.37547147 0 0.67468572
0.38507533 0 0.67461187
0.39567694 0.00080778234 0.67483258
0.40000007 0.0039339215 0.67571521
-2.6169369e-17 0.014666597 0.67387742
0.40000007 0.012609537 0.67486304
-2.5216303e-18 0.021127755 0.67608339
0.00070778775 0.026412291 0.67504323
0.01505852 0.029999997 0.67369753
0.025163596 0.029999997 0.67551869
0.035847545 0.029999997 0.67860061
0.043696783 0.029999997 0.67418349
0.055512957 0.029999997 0.67290056
0.060318496 0.029999997 0.67831588
0.075063296 0.029999997 0.67603469
0.080281541 0.029999997 0.67062241
0.095219254 0.029999997 0.67487818
0.10791496 0.029999996 0.6742571
0.11632588 0.029999997 0.67629349
0.12296601 0.029999996 0.67598575
0.1301908 0.029999997 0.67289162
0.15229213 0.029999997 0.67634612
0.16533943 0.029999997 0.6746437
0.17663658 0.029999997 0.67702633
0.18411338 0.029999997 0.67688423
0.19797739 0.029999997 0.67384243
0.21338341 0.029999997 0.67507672
0.22495937 0.029999996 0.67370844
0.2355274 0.029999997 0.67215014
0.24280837 0.029999997 0.67303979
0.2551192 0.029999997 0.67587078
0.26417336 0.029999996 0.67242545
0.27588794 0.029999997 0.67386258
0.28535879 0.029999997 0.67559159
0.29442832 0.029999999 0.67664623
0.30897695 0.029999997 0.67457098
0.31568587 0.029999997 0.67467558
0.32421601 0.029999997 0.67750156
0.33342907 0.029999996 0.67480606
0.34688324 0.029999997 0.67586631
0.35609534 0.029999996 0.67721874
0.36655566 0.029999996 0.67635155
0.37579319 0.029999996 0.6758824
0.38559085 0.029999997 0.67755413
0.39826542 0.024946745 0.67349905
0.40000001 0.025843663 0.67246372
0.0054133334 0.030000001 0.67506027
0.01661709 0.030000001 0.67683846
0.02388872 0.030000001 0.6747756
0.033681076 0.029999999 0.67294246
0.0444002 0.030000001 0.67459172
0.05382549 0.030000001 0.67282021
0.067427173 0.030000001 0.67562437
0.074715964 0.030000001 0.6768654
0.086555116 0.030000001 0.6761961
0.093435936 0.030000001 0.6739344
0.1040531 0.030000001 0.67207557
0.11367773 0.030000001 0.67482042
0.12444378 0.030000001 0.67562795
0.13608809 0.030000001 0.67491192
0.14528877 0.030000001 0.67549706
0.15527888 0.030000001 0.67393416
0.16253456 0.030000001 0.67572767
0.17417555 0.029999997 0.6752128
0.18382177 0.029999997 0.6730758
0.19384369 0.029999999 0.67532939
0.20557539 0.029999999 0.67464608
0.21330853 0.030000001 0.67498982
0.22382155 0.030000001 0.67425013
0.23445314 0.030000001 0.67632717
0.24341653 0.030000001 0.67382294
0.25626689 0.029999999 0.67403013
0.2673617 0.030000001 0.67478335
0.27361062 0.030000001 0.6733126
0.28594011 0.030000001 0.67275381
0.29657426 0.029999999 0.67690307
0.30511269 0.030000001 0.67544252
0.31479862 0.029999999 0.67835963
0.32662457 0.030000001 0.67369777
0.33406422 0.030000001 0.6770131
0.34516889 0.030000001 0.6741339
0.35476637 0.030000001 0.67388582
0.3659986 0.030000001 0.67403316
0.37648103 0.030000001 0.67401356
0.38444373 0.030000001 0.67280668
0.39516255 0.029999997 0.67464834
-6.0986564e-17 0.0056002014 0.68447214
0.0049240086 0 0.68226814
0.014853577 0 0.68434232
0.024594216 0 0.68477607
0.036312282 0 0.68388397
0.045386117 0 0.68491471
0.053264931 0 0.6842913
0.065235525 0 0.68376243
0.075962745 0 0.68471801
0.084732726 0 0.68526137
0.094964325 0 0.68630779
0.10486477 0 0.68423885
0.11626839 0 0.685184
0.12531212 0 0.68620157
0.13470462 0 0.68492341
0.1457199 0 0.6844337
0.15535504 0 0.6840198
0.1654498 0 0.68576419
0.1756486 0 0.68679184
0.18459165 0 0.68537271
0.19567962 0 0.68484068
0.20368972 0 0.68461299
0.21475354 0 0.68657339
0.22473171 0 0.68488491
0.23487923 0 0.68602896
0.24512221 0 0.68458134
0.25489423 0 0.68482393
0.26414421 0 0.68413609
0.27547345 0 0.68636853
0.28423005 0 0.68365371
0.29457617 0 0.68432391
0.30553597 0 0.68682891
0.31548792 0 0.68448699
0.32566336 0 0.68522131
0.33546516 0 0.68553478
0.34439597 0 0.68421823
0.35637751 0 0.683999
0.36496964 0 0.68650258
0.3741594 0 0.68535316
0.38301867 0 0.6850602
0.39406323 0 0.6845932
0.40000001 0.0059329239 0.68355238
-2.2687758e-17 0.015888415 0.68258929
0.40000004 0.015975269 0.68530017
-5.0243033e-18 0.020690221 0.68348396
0 0.025429189 0.68274814
0.015547281 0.029999997 0.68528163
0.024642678 0.029999997 0.68562251
0.045284022 0.029999997 0.68624753
0.050215095 0.029999997 0.68250549
0.068348154 0.029999997 0.68824446
0.076375067 0.029999996 0.68599749
0.084165119 0.029999997 0.68477631
0.10476836 0.029999997 0.68529236
0.11613815 0.029999997 0.68357313
0.12648764 0.029999997 0.68336034
0.1457755 0.029999996 0.68664551
0.15280858 0.029999997 0.68808031
0.17425554 0.029999997 0.68580055
0.18646185 0.029999997 0.68438482
0.20248124 0.029999997 0.68468815
0.21698743 0.029999997 0.68194342
0.22798853 0.029999997 0.68622488
0.23529913 0.029999997 0.6851331
0.24443302 0.029999997 0.68576396
0.25505438 0.029999999 0.68657112
0.26460582 0.029999997 0.68603086
0.2745927 0.029999999 0.68538362
0.28150925 0.029999997 0.68236077
0.29210246 0.029999997 0.68428576
0.30501345 0.029999996 0.68445426
0.31409347 0.029999996 0.68520713
0.32508105 0.029999997 0.68208486
0.33387902 0.029999996 0.68131846
0.34458256 0.029999997 0.68629241
0.35344759 0.029999996 0.68785125
0.36430272 0.029999997 0.68614304
0.37411737 0.029999997 0.68595779
0.38543364 0.029999999 0.68528664
0.39589149 0.029044798 0.68579751
0.40000001 0.025519576 0.68271172
0.0063439244 0.029999997 0.68366176
0.01459372 0.029999999 0.68548179
0.024001418 0.030000001 0.68405449
0.033095296 0.030000001 0.68403608
0.045989953 0.029999997 0.68637979
0.057213228 0.030000001 0.68485039
0.063797764 0.030000001 0.68574864
0.072872378 0.030000001 0.68505478
0.082357049 0.030000001 0.68446761
0.09536162 0.030000001 0.68262208
0.10545836 0.029999997 0.68597668
0.11497365 0.029999999 0.68416667
0.12419124 0.030000001 0.68559617
0.13736868 0.029999999 0.68542218
0.14315256 0.030000001 0.68226194
0.15634528 0.030000001 0.68508613
0.16495612 0.029999999 0.68720675
0.17422563 0.030000001 0.68176508
0.18598782 0.029999999 0.68526518
0.19660123 0.029999999 0.68378669
0.20497604 0.030000001 0.68704182
0.21356486 0.030000001 0.68540359
0.22448441 0.030000001 0.68484658
0.23563738 0.030000001 0.68403119
0.24364927 0.030000001 0.68214345
0.25544009 0.030000001 0.6846258
0.26652575 0.030000001 0.68278617
0.27677986 0.030000001 0.68564588
0.28425729 0.030000001 0.68790668
0.29499504 0.030000001 0.68743098
0.30485991 0.030000001 0.6854378
0.31392249 0.030000001 0.68425626
0.3247911 0.030000001 0.68453091
0.33548254 0.030000001 0.68550104
0.34557819 0.030000001 0.68478227
0.35376495 0.030000001 0.68548232
0.36466682 0.030000001 0.68463957
0.37578523 0.029999999 0.68575907
0.38537073 0.029999999 0.68567151
-6.4425419e-17 0.0050266017 0.69549662
0.0040826225 0 0.69545305
0.016507352 0 0.6947574
0.024503639 0 0.69507146
0.035737507 0 0.69559538
0.045329183 0 0.69483459
0.056055836 0 0.69482303
0.066025108 0 0.69627833
0.074778214 0 0.69528031
0.086452328 0 0.69438916
0.094716556 0 0.69496256
0.10449686 0 0.6940642
0.11417026 0 0.6922484
0.12646177 0 0.6939916
0.13489985 0 0.69376862
0.14597356 0 0.69239622
0.15466769 0 0.69328517
0.16498069 0 0.69479686
0.17389032 0 0.69617331
0.18346164 0 0.69450045
0.1956214 0 0.69619596
0.20527945 0 0.69510943
0.21585467 0 0.69551092
0.22512744 0 0.6958487
0.23734108 0 0.69436961
0.2449953 0 0.69516587
0.25554687 0 0.69557393
0.26573738 0 0.69425291
0.27452114 0 0.69537991
0.28561723 0 0.69547176
0.29594544 0 0.69589251
0.30726707 0 0.69523185
0.3153826 0 0.69588178
0.32447511 0 0.69527894
0.33381763 0 0.69542342
0.34611821 0 0.69462615
0.35496426 0 0.69475198
0.36595821 0 0.69499731
0.3754718 0 0.69445521
0.38507044 0 0.69570851
0.39518422 0 0.69578582
0.40000004 0.0043996614 0.69433194
-3.0692725e-17 0.014107995 0.69445145
0.40000004 0.013614574 0.69579577
-4.9139996e-18 0.021097887 0.69519764
0.00081605959 0.02787552 0.69414175
0.023078986 0.029999997 0.69568264
0.037096575 0.029999997 0.69544691
0.046398826 0.029999997 0.69301748
0.051311951 0.029999997 0.69387579
0.075074278 0.029999997 0.6931355
0.08353956 0.029999997 0.69635665
0.090700723 0.029999997 0.69999927
0.10683039 0.029999997 0.69621432
0.11469907 0.029999999 0.69677162
0.12448184 0.029999997 0.69430351
0.1326911 0.029999997 0.69187373
0.14735389 0.029999996 0.69852751
0.15489419 0.029999996 0.69558305
0.1630148 0.029999997 0.69731939
0.19198549 0.029999997 0.6955086
0.20161349 0.029999997 0.69301915
0.21262459 0.029999996 0.69442588
0.22497328 0.029999997 0.69113123
0.23388445 0.029999997 0.69539404
0.24578281 0.029999997 0.69445395
0.25331208 0.029999997 0.69627243
0.26615962 0.029999996 0.69587427
0.27524525 0.029999997 0.69595951
0.28250417 0.029999999 0.69524151
0.29754502 0.029999997 0.69464189
0.30365238 0.029999997 0.69509238
0.31198421 0.029999996 0.69682312
0.32333863 0.029999997 0.69831246
0.33531699 0.029999997 0.69584119
0.34696448 0.029999997 0.69594753
0.35141405 0.029999996 0.6952216
0.36534137 0.029999997 0.69531786
0.37398991 0.029999996 0.69569319
0.38508105 0.029999996 0.69758624
0.39439771 0.029999997 0.69376528
0.40000007 0.025278026 0.69350034
0.0075759343 0.029999999 0.6936385
0.016051847 0.029999999 0.69553822
0.023452871 0.030000001 0.69668728
0.035757359 0.030000001 0.69496733
0.04449166 0.030000001 0.69297355
0.055053327 0.030000001 0.69413573
0.065603949 0.030000001 0.69523537
0.070880488 0.029999999 0.69613856
0.08363238 0.030000001 0.69620585
0.095618017 0.030000001 0.69426507
0.1039786 0.030000001 0.69512105
0.11509828 0.029999997 0.69425118
0.12461986 0.030000001 0.69547397
0.13426594 0.030000001 0.69699478
0.14399503 0.030000001 0.69562912
0.15735126 0.030000001 0.69465226
0.16523996 0.030000001 0.69636661
0.17470998 0.030000001 0.69433832
0.18366803 0.029999997 0.69332534
0.19599625 0.030000001 0.69673526
0.20615819 0.029999999 0.69454396
0.21663612 0.030000001 0.69821805
0.22424951 0.030000001 0.69574797
0.23606057 0.030000001 0.69416279
0.24528106 0.030000001 0.69452208
0.25553194 0.030000001 0.69454342
0.26275557 0.030000001 0.69521409
0.27693537 0.030000001 0.69606161
0.28605333 0.030000001 0.69454288
0.2967951 0.030000001 0.69549561
0.30425718 0.029999999 0.69513363
0.31285134 0.030000001 0.69587755
0.32319337 0.030000001 0.69259471
0.33630931 0.030000001 0.69321817
0.34369293 0.030000001 0.69560772
0.35230416 0.030000001 0.69609416
0.3652913 0.030000001 0.69557196
0.37522483 0.030000001 0.69333243
0.38403097 0.030000001 0.69508004
0.39609784 0.030000001 0.69615424
-5.780403e-17 0.0071661691 0.70635796
0.0053363186 0 0.70487106
0.015759198 0 0.70499188
0.024390034 0 0.7065022
0.034214877 0 0.705742
0.046673484 0 0.70653266
0.054858342 0 0.70644253
0.064827055 0 0.7055012
0.074618921 0 0.70561814
0.084739693 0 0.70553982
