# .PCD v0.7 - Point Cloud Data file format
VERSION 0.7
FIELDS x y z normal_x normal_y normal_z curvature
SIZE 4 4 4 4 4 4 4
TYPE F F F F F F F
COUNT 1 1 1 1 1 1 1
WIDTH 659
HEIGHT 1
VIEWPOINT 0 0 0 1 0 0 0
POINTS 659
DATA ascii
0.038203385 0.20753396 0.60213625 -0.0035049031 -0.99915081 0.041055221 0
0.043558929 0.2074732 0.60111457 -0.0035049028 -0.99915075 0.041055217 0
0.048132662 0.20750694 0.60235792 -0.0036586747 -0.99919748 0.039886378 0
0.051659826 0.20749071 0.60230535 -0.0036330463 -0.99918985 0.040081192 0
0.057190359 0.20743853 0.60148299 -0.0036062133 -0.99918985 0.040083438 0
0.063199647 0.20739622 0.60096067 -0.0037533415 -0.999228 0.0391079 0
0.066990763 0.20744783 0.60264301 -0.0037533413 -0.99922794 0.039107896 0
0.071952373 0.20748222 0.60397279 -0.0032730179 -0.99921256 0.039541788 0
0.077119999 0.20748718 0.60448802 -0.0027130861 -0.99921143 0.039612908 0
0.082367361 0.2073878 0.60237628 -0.0031781462 -0.99919283 0.040045228 0
0.085784115 0.20737571 0.602346 -0.003178146 -0.99919277 0.040045224 0
0.094439603 0.20733528 0.60202366 -0.0029648992 -0.99919218 0.040077902 0
0.098701231 0.20732777 0.60211629 -0.0025384054 -0.99919075 0.040143244 0
0.1015989 0.20737058 0.60336483 -0.0025384054 -0.99919075 0.040143244 0
0.11159027 0.20724666 0.60082942 -0.0017489489 -0.99916321 0.040862989 0
0.12231255 0.20734799 0.60349691 -0.00044773778 -0.99915528 0.041091487 0
0.12787987 0.20726594 0.60163456 -0.0011496308 -0.99913299 0.041616336 0
0.13087691 0.2072826 0.60211724 -0.0011496308 -0.99913299 0.041616336 0
0.13760336 0.20732147 0.60283697 0.001903804 -0.99907899 0.042867098 0
0.14373921 0.20729788 0.60196936 0.0022661514 -0.9990657 0.043157171 0
0.1471774 0.20730118 0.60173935 0.004830156 -0.99903363 0.043685906 0
0.1520457 0.20737772 0.60282224 0.0061376579 -0.99901062 0.044046324 0
0.15799561 0.20738983 0.60219574 0.0073704221 -0.99895632 0.045077838 0
0.16309646 0.20745358 0.60233712 0.01241633 -0.99879092 0.047565527 0
0.17130131 0.2074789 0.60026205 0.021426274 -0.9985168 0.050051294 0
0.17647487 0.20763218 0.60079539 0.037597343 -0.99781716 0.054289158 0
0.18406391 0.20843567 0.60272521 0.14592712 -0.98606008 0.079943143 0
-0.2003808 0.21493578 0.60270977 -0.48420143 -0.86035061 0.1592038 0
-0.19792263 0.21374798 0.60194886 -0.37379533 -0.91872692 0.12734984 0
-0.19272014 0.2116545 0.6030274 -0.49679711 -0.8527835 0.16109885 0
0.1883705 0.21080473 0.60422337 0.56451213 -0.80453104 0.18454246 0
0.19149692 0.21207346 0.60244805 0.37435132 -0.91802967 0.13070063 0
0.19565956 0.21372144 0.60247219 0.40011474 -0.90684265 0.1324563 0
-0.20558082 0.21996057 0.60151452 -0.90211922 -0.39004448 0.18451636 0
-0.2023676 0.21646528 0.60340935 -0.62794691 -0.75971395 0.16887091 0
0.19932348 0.21538454 0.60074037 0.6310578 -0.75747311 0.16733395 0
0.20154543 0.2181334 0.60160583 0.81440961 -0.55025971 0.18425858 0
-0.20531005 0.2222995 0.60367608 -0.97355515 0.15193759 0.17060298 0
0.20160896 0.22380142 0.60266215 0.81667906 0.56233519 0.12967065 0
-0.20220169 0.22713108 0.60228658 -0.50181699 0.86179841 0.0740491 0
-0.19791023 0.22870617 0.6021691 -0.22244641 0.97483253 0.01480379 0
-0.19225246 0.2293919 0.60386717 -0.03959161 0.99889624 -0.025275355 0
-0.18725249 0.22952406 0.60236788 -0.017923025 0.99942392 -0.028821442 0
-0.18266428 0.22959624 0.60302901 -0.0047056186 0.99950391 -0.031142877 0
-0.17717507 0.22960305 0.60380727 0.005621661 0.99945712 -0.032464474 0
-0.17321385 0.22950581 0.60177898 0.009656786 0.99933237 -0.035235379 0
-0.16415028 0.2294887 0.60447663 0.012550125 0.99933714 -0.034173269 0
-0.15558332 0.22924554 0.6011045 0.01455586 0.99923772 -0.036224522 0
-0.15355094 0.22922677 0.60140359 0.01455586 0.99923772 -0.036224522 0
-0.1476616 0.22915173 0.60159618 0.013087139 0.99926698 -0.035974797 0
-0.14273684 0.22909269 0.60174757 0.013087141 0.99926698 -0.035974801 0
-0.1367124 0.22906423 0.60308731 0.012171192 0.99930459 -0.035244931 0
-0.13239247 0.22898693 0.60233968 0.011304725 0.99932438 -0.034972776 0
-0.12259402 0.22889252 0.60292387 0.012045438 0.99933529 -0.03440829 0
-0.11720238 0.22884655 0.60347664 0.012045438 0.99933529 -0.03440829 0
-0.11252352 0.22878949 0.60340172 0.011409076 0.99934506 -0.034339592 0
-0.10814384 0.22867857 0.60162479 0.011182779 0.99935412 -0.034149323 0
-0.10185304 0.22864261 0.60260272 0.010730184 0.99937207 -0.033768781 0
-0.097912148 0.22860345 0.60269576 0.010730183 0.99937207 -0.033768781 0
-0.086730301 0.22847226 0.60230964 0.010507034 0.99937499 -0.033751838 0
-0.083747908 0.22840594 0.60127407 0.010507034 0.99937499 -0.033751838 0
-0.076781794 0.22835517 0.60198963 0.010920732 0.99938405 -0.033350948 0
-0.070587344 0.22827061 0.60146159 0.010679888 0.99938709 -0.033339228 0
-0.06659998 0.22823468 0.60163045 0.010196652 0.99940479 -0.032955289 0
-0.061935648 0.22822094 0.60265714 0.010196652 0.99940479 -0.032955289 0
-0.057954472 0.2281162 0.60071242 0.010196652 0.99940485 -0.032955293 0
-0.053058516 0.22806457 0.60066152 0.010196652 0.99940479 -0.032955289 0
-0.048677426 0.22808039 0.60248393 0.010047652 0.99940652 -0.032950856 0
-0.04190094 0.22798023 0.60151964 0.010219177 0.99938011 -0.033690501 0
-0.036359187 0.2280332 0.60480845 0.010047652 0.99940646 -0.032950856 0
-0.03199007 0.22789042 0.60182905 0.0096089793 0.99939686 -0.033370163 0
-0.027814275 0.22785309 0.60190654 0.0094935764 0.9994089 -0.033040959 0
-0.021687882 0.22781798 0.60261959 0.0095762154 0.99940997 -0.032985125 0
-0.017458217 0.22776057 0.60210794 0.0095762163 0.99940997 -0.032985125 0
-0.012165245 0.2277438 0.60273653 0.0053942488 0.99944085 -0.032999329 0
-0.0092101665 0.22776157 0.60375774 0.0053942488 0.99944085 -0.032999329 0
-0.0033843843 0.22768156 0.60226977 0.003337471 0.99945247 -0.032918997 0
0.0016233742 0.22771272 0.60325497 -0.0024969454 0.9994539 -0.03295036 0
0.0069983974 0.2276853 0.60200036 -0.0026224018 0.99945164 -0.033008721 0
0.012394262 0.22773273 0.60290748 -0.0051765018 0.99944192 -0.033000123 0
0.017600028 0.22775353 0.60250646 -0.0068792165 0.99943185 -0.03299427 0
0.022649977 0.22780371 0.60297334 -0.006879217 0.99943191 -0.032994274 0
0.029061384 0.2278305 0.60246021 -0.0071099233 0.99942833 -0.033053786 0
0.033208232 0.22787285 0.60281432 -0.007386642 0.99941754 -0.033317503 0
0.037068497 0.22790948 0.60305929 -0.0073354496 0.99942523 -0.03309685 0
0.042140655 0.22798233 0.60413861 -0.0073013222 0.99943036 -0.032949749 0
0.04809526 0.2278932 0.60011613 -0.0073013222 0.99943036 -0.032949749 0
0.051096119 0.22796683 0.60166955 -0.0074782306 0.99942887 -0.032955013 0
0.057810575 0.22803356 0.60216922 -0.0074782306 0.99942887 -0.032955021 0
0.062493652 0.22810709 0.60333711 -0.0074782306 0.99942887 -0.032955013 0
0.068353482 0.2281516 0.60329705 -0.0079469616 0.99941289 -0.033327397 0
0.073436245 0.22817653 0.60281247 -0.0081646526 0.99941081 -0.033337984 0
0.077606179 0.22818422 0.60202897 -0.0079123117 0.99940461 -0.033582523 0
0.083566561 0.22820862 0.6013763 -0.007744086 0.9994005 -0.033745557 0
0.087578893 0.22826077 0.60200018 -0.0077440846 0.99940044 -0.033745553 0
0.092892259 0.22830194 0.60198867 -0.0078802202 0.99939907 -0.033755891 0
0.097562723 0.228387 0.60340214 -0.0080163544 0.99939764 -0.033766229 0
0.10213299 0.22837675 0.60200447 -0.0082109151 0.99939048 -0.033929795 0
0.10803737 0.22848137 0.60357201 -0.008697317 0.99937242 -0.03433872 0
0.11737567 0.22856262 0.6034826 -0.0092913192 0.99936485 -0.034402825 0
0.12188992 0.2285949 0.60320121 -0.0092913192 0.99936485 -0.034402825 0
0.1276114 0.22859132 0.60163563 -0.0085450904 0.9993518 -0.03497152 0
0.13258851 0.22860888 0.60088503 -0.0088789659 0.99934727 -0.035018507 0
0.13794762 0.22874215 0.603176 -0.010394389 0.9992975 -0.036006898 0
0.14179178 0.2287437 0.60210896 -0.010394388 0.99929744 -0.036006894 0
0.14708498 0.22881801 0.60261571 -0.01085247 0.99928981 -0.036084771 0
0.15103652 0.228863 0.60258895 -0.011768626 0.99927378 -0.036240485 0
0.15753052 0.2289357 0.60248429 -0.011768626 0.99927378 -0.036240485 0
0.16719943 0.2289923 0.60121107 -0.010839868 0.99922466 -0.037849668 0
0.17110676 0.22906238 0.60223019 -0.004588394 0.9994489 -0.032876577 0
0.17727484 0.22910929 0.60306895 -0.00061066728 0.99946803 -0.032609101 0
0.18355262 0.22906171 0.6032902 0.013437956 0.99944377 -0.030522579 0
0.1875906 0.22890857 0.60309458 0.042179644 0.99878979 -0.02529737 0
0.19294795 0.22844414 0.6023798 0.16379482 0.98649347 0.0013773442 0
0.19733614 0.22727045 0.60417509 0.39694375 0.91549695 0.065582521 0
-0.18765728 0.20957112 0.60716611 -0.33484861 -0.93234307 0.13642858 0
-0.18387565 0.20868054 0.60563064 -0.10262066 -0.99231607 0.069121763 0
-0.17874162 0.20851521 0.60870701 -0.056163773 -0.99671978 0.05826946 0
-0.17488508 0.20836502 0.60836613 -0.024566926 -0.99843138 0.0503124 0
-0.16750041 0.20821328 0.60844862 -0.015250364 -0.99874228 0.047763437 0
-0.16271532 0.20806116 0.60682166 -0.015803751 -0.99874526 0.047520086 0
-0.15947437 0.20797215 0.60590452 -0.011049017 -0.99888253 0.045951951 0
-0.15259311 0.20794451 0.60669053 -0.0089250179 -0.99898022 0.044259895 0
-0.1453035 0.20793749 0.60775858 -0.0050190208 -0.99904883 0.043316193 0
-0.14345573 0.20789897 0.60708171 -0.0049940539 -0.99905372 0.043207441 0
-0.13807084 0.20787348 0.60711437 -0.0049940539 -0.99905372 0.043207441 0
-0.13212422 0.2079346 0.60913748 -0.001911261 -0.999143 0.041348215 0
-0.12753768 0.2078975 0.6084885 -0.0022844858 -0.99915373 0.04106915 0
-0.12343656 0.2078017 0.60638607 -0.0022844858 -0.99915373 0.04106915 0
-0.11714603 0.20787239 0.60845435 -0.0016579442 -0.99915946 0.04095912 0
-0.11156873 0.20784457 0.60794139 -0.0010314021 -0.99916482 0.040849075 0
-0.10771847 0.20791014 0.60964215 -0.0010314021 -0.99916482 0.040849075 0
-0.10376203 0.20789737 0.60942954 -0.0010314021 -0.99916482 0.040849075 0
-0.09707769 0.20780544 0.60718203 0.00031876654 -0.99919832 0.040031593 0
-0.090946265 0.20783636 0.60788977 0.00045507064 -0.99919915 0.040010706 0
-0.086157344 0.20784958 0.60818672 1.0707114e-05 -0.99921566 0.03959766 0
-0.082516298 0.20788088 0.60897517 1.0707115e-05 -0.99921572 0.039597664 0
-0.077071026 0.20783174 0.60772657 0.00029004982 -0.99921709 0.039562192 0
-0.073206373 0.20782001 0.60737652 0.00072413799 -0.99922377 0.039386913 0
-0.06715592 0.2079093 0.6095345 0.0010336287 -0.9992345 0.039107315 0
-0.062887058 0.20779362 0.60646629 0.0010336287 -0.9992345 0.039107315 0
-0.056254741 0.20784409 0.60758173 0.00097926008 -0.99923432 0.039112631 0
-0.052328814 0.20781094 0.60663593 0.00097926008 -0.99923432 0.039112631 0
-0.046768785 0.2078343 0.60709369 0.00097926008 -0.99923432 0.039112631 0
-0.043337904 0.20784593 0.60730529 0.00097926008 -0.99923432 0.039112631 0
-0.036104638 0.20776877 0.60518324 0.00050992682 -0.9992494 0.03873587 0
-0.032947812 0.20785554 0.60737926 0.00050992676 -0.99924934 0.038735867 0
-0.026788721 0.20788789 0.60813344 0.00050992676 -0.99924928 0.03873587 0
-0.023735311 0.20792669 0.60909426 0.00050992682 -0.9992494 0.03873587 0
-0.017752802 0.2078938 0.60820407 -0.0005658748 -0.99924791 0.038772032 0
-0.012355292 0.20785324 0.60724795 -0.00058616564 -0.99922717 0.039303359 0
-0.0095877703 0.2077677 0.6051203 -0.000647037 -0.99916315 0.040897261 0
-0.0044754203 0.20786098 0.60755181 -0.00056587486 -0.99924797 0.038772035 0
0.001233905 0.20789088 0.60852653 -0.0021735854 -0.99924588 0.038768306 0
0.0077525652 0.20781922 0.60705483 -0.0021463661 -0.99921805 0.039479081 0
0.012965477 0.20782268 0.60743052 -0.0021599757 -0.99923205 0.039123699 0
0.017313991 0.20779593 0.6070258 -0.0031604934 -0.99921662 0.039446793 0
0.02239492 0.20778805 0.60724258 -0.0032294558 -0.99924439 0.038732819 0
0.026355624 0.20780301 0.60795891 -0.0032294558 -0.99924439 0.038732819 0
0.030115543 0.20770544 0.60575497 -0.0032294558 -0.99924439 0.038732819 0
0.036287609 0.2077492 0.60740131 -0.0034729 -0.99923921 0.038846474 0
0.044510972 0.20770347 0.60701507 -0.0037611865 -0.99922794 0.039107125 0
0.046063833 0.20768836 0.6067788 -0.0037611865 -0.99922794 0.039107125 0
0.053188376 0.20765483 0.60660648 -0.0037572638 -0.99922794 0.039107509 0
0.056898523 0.20769542 0.60800028 -0.0037533413 -0.99922794 0.039107896 0
0.06259875 0.20763595 0.60702765 -0.0037533415 -0.99922794 0.039107893 0
0.066921934 0.20762496 0.60715246 -0.0034651472 -0.99921876 0.039368231 0
0.072088555 0.20762882 0.60768855 -0.0032730179 -0.99921256 0.039541788 0
0.076932572 0.20759737 0.60725451 -0.0027130859 -0.99921137 0.039612904 0
0.081152633 0.20752534 0.60572672 -0.0027130861 -0.99921143 0.039612908 0
0.086864613 0.2076416 0.60906655 -0.003178146 -0.99919277 0.040045224 0
0.091577113 0.20757727 0.60783517 -0.0031781462 -0.99919283 0.040045228 0
0.097787082 0.20755662 0.60775465 -0.0025384054 -0.99919075 0.040143244 0
0.10304394 0.20748718 0.60634464 -0.0017489489 -0.99916321 0.040862989 0
0.10774022 0.20754197 0.60788524 -0.0017489491 -0.99916327 0.040862992 0
0.11241337 0.207518 0.60749918 -0.0017489489 -0.99916321 0.040862989 0
0.11791427 0.20753098 0.60789859 -0.00044773778 -0.99915528 0.041091487 0
0.12081482 0.20759022 0.60937029 -0.00044773778 -0.99915528 0.041091487 0
0.12714532 0.20750988 0.60749793 -0.00079868437 -0.99914426 0.041353915 0
0.13203293 0.2074552 0.60617137 0.00055826129 -0.9991011 0.042386826 0
0.13887134 0.20762256 0.60973382 0.0022986857 -0.99905956 0.043298818 0
0.14308921 0.20752826 0.60733306 0.0022905522 -0.99906111 0.043263406 0
0.14721625 0.20753239 0.60700291 0.0061695487 -0.9990052 0.044166528 0
0.15353388 0.20752813 0.60602266 0.0061886827 -0.9990018 0.044238646 0
0.15749931 0.20755595 0.60593849 0.01118952 -0.99886698 0.04625643 0
0.16246879 0.20761383 0.60585266 0.012488579 -0.99877924 0.047793083 0
0.16800007 0.2077457 0.60693455 0.018937353 -0.99859726 0.049445778 0
0.17357077 0.20785695 0.60676092 0.032358065 -0.99807179 0.052969549 0
0.1775468 0.20818065 0.60930753 0.053721979 -0.99681443 0.058948465 0
0.18317883 0.20884873 0.60776412 0.24502876 -0.9631741 0.11070912 0
-0.19777477 0.21415976 0.60529488 -0.36554077 -0.92077798 0.13619059 0
-0.19293509 0.21240517 0.60689288 -0.40033698 -0.9045611 0.14662707 0
0.18695028 0.21062094 0.60775769 0.55891776 -0.80871052 0.18329822 0
0.19314103 0.21337108 0.60704786 0.3701562 -0.91881686 0.13696727 0
-0.2033838 0.21802928 0.60626221 -0.74338704 -0.64573979 0.174344 0
-0.1990076 0.21508762 0.6077069 -0.48420143 -0.86035061 0.1592038 0
0.19710854 0.21507585 0.60638392 0.439096 -0.88707393 0.14245926 0
0.20108147 0.21913609 0.60660756 0.93882465 -0.28717813 0.19009733 0
-0.20435567 0.22233859 0.60695398 -0.9817214 0.017469276 0.18952009 0
0.20108511 0.22257876 0.60748935 0.96799946 0.16269891 0.19106571 0
-0.1971381 0.22874334 0.60820448 -0.2596508 0.96512538 0.033382092 0
-0.1933471 0.22934784 0.60741568 -0.10929266 0.99400932 -0.0008508868 0
-0.18820073 0.2296464 0.60752767 -0.032343451 0.99914181 -0.025877006 0
-0.18297681 0.22968796 0.60606205 -0.0040373681 0.99951142 -0.030995987 0
-0.17792857 0.22971092 0.6069482 0.0080112498 0.99938983 -0.033996552 0
-0.16824344 0.22968218 0.60863179 0.012550125 0.99933708 -0.034173269 0
-0.16225423 0.22953583 0.60662353 0.01501173 0.99931204 -0.033914547 0
-0.1567079 0.22950129 0.60795367 0.014091858 0.99935007 -0.033180751 0
-0.15316604 0.22946469 0.60834253 0.013861886 0.99935931 -0.032997292 0
-0.14713985 0.22936359 0.60776788 0.012659946 0.99935776 -0.033523872 0
-0.1417553 0.22921531 0.60551089 0.013087141 0.99926692 -0.035974797 0
-0.13831201 0.22922409 0.60700995 0.01297323 0.99929178 -0.035321239 0
-0.13240007 0.22921604 0.60888344 0.012163465 0.9993484 -0.03398294 0
-0.1294997 0.22918543 0.60901397 0.012045438 0.99933529 -0.03440829 0
-0.12429926 0.22910772 0.60857695 0.012045438 0.99933529 -0.03440829 0
-0.11639753 0.22896346 0.60715342 0.012045438 0.99933529 -0.03440829 0
-0.11354885 0.22889747 0.60620368 0.011409077 0.99934506 -0.034339588 0
-0.10866258 0.22891307 0.60828072 0.011409077 0.99934506 -0.034339588 0
-0.10293318 0.22883794 0.60799789 0.011409077 0.99934512 -0.034339596 0
-0.097815111 0.22875291 0.60715002 0.010730183 0.99937207 -0.033768781 0
-0.092630073 0.22873206 0.60816598 0.010507034 0.99937499 -0.033751838 0
-0.087514415 0.2286413 0.60707885 0.010589774 0.99937677 -0.033671658 0
-0.077312663 0.2285319 0.60711181 0.010920732 0.99938405 -0.033350948 0
-0.07195498 0.22847316 0.60709405 0.010800309 0.9993856 -0.033345088 0
-0.067280762 0.22846824 0.60844517 0.010679888 0.99938709 -0.033339228 0
-0.062858947 0.2283936 0.6076076 0.010196652 0.99940479 -0.032955289 0
-0.058194447 0.22835751 0.60795647 0.010196652 0.99940485 -0.032955293 0
-0.050817046 0.22823131 0.6064086 0.010047652 0.99940646 -0.032950856 0
-0.045904573 0.22822228 0.60763311 0.010047652 0.99940646 -0.032950856 0
-0.042491924 0.22819 0.60769475 0.010047652 0.99940646 -0.032950856 0
-0.037143696 0.22816387 0.60853451 0.010138346 0.99940854 -0.032860793 0
-0.031273257 0.22805205 0.60694295 0.0099320691 0.99941522 -0.032720029 0
-0.027663333 0.22808364 0.60898584 0.0095509607 0.99942404 -0.032562498 0
-0.018853078 0.22797522 0.60822922 0.0094905253 0.99942249 -0.032629248 0
-0.012950166 0.22796984 0.60947025 0.0053300885 0.99945819 -0.032480422 0
-0.0069523528 0.22785479 0.60695052 0.0053782091 0.9994452 -0.032869603 0
-0.0011954071 0.22784577 0.60748923 5.6545236e-05 0.99945766 -0.032931112 0
0.0022364862 0.22786406 0.60779136 -0.0026224018 0.99945164 -0.033008721 0
0.0078360783 0.22784683 0.60682511 -0.0026224018 0.99945164 -0.033008721 0
0.011783089 0.2278626 0.60697281 -0.0047194441 0.99945253 -0.03274801 0
0.016871417 0.22793938 0.60830742 -0.0068050362 0.99944252 -0.032686312 0
0.024218118 0.22795741 0.60733163 -0.0067679454 0.99944776 -0.032532331 0
0.026463706 0.22794758 0.60656267 -0.0067679454 0.99944776 -0.032532331 0
0.032097861 0.22806305 0.6088171 -0.0074165869 0.99943328 -0.032835279 0
0.037951346 0.22806545 0.60758859 -0.0073013222 0.99943036 -0.032949749 0
0.040817808 0.22804543 0.60634577 -0.0073013222 0.99943036 -0.032949749 0
0.046825852 0.22814909 0.60815835 -0.0073013222 0.99943036 -0.032949749 0
0.052623387 0.22817762 0.60771585 -0.0074782302 0.99942881 -0.032955009 0
0.057727002 0.22825241 0.60882294 -0.0075719776 0.99942571 -0.033029493 0
0.062573768 0.2282178 0.60665971 -0.0079469625 0.99941295 -0.033327397 0
0.067482874 0.22824825 0.60640293 -0.0079469625 0.99941295 -0.033327397 0
0.07408125 0.22835863 0.60811365 -0.0081646526 0.99941087 -0.033337988 0
0.077924542 0.22835654 0.60711008 -0.0081646526 0.99941087 -0.033337988 0
0.080655135 0.22838792 0.60738224 -0.0081646526 0.99941087 -0.033337988 0
0.085663937 0.22840822 0.6068064 -0.007744086 0.9994005 -0.033745557 0
0.092674039 0.22849572 0.60777807 -0.0079255989 0.99939865 -0.033759337 0
0.097579844 0.22855914 0.60845727 -0.0084703295 0.99938083 -0.034147885 0
0.10356076 0.22855502 0.60684931 -0.008697317 0.99937242 -0.03433872 0
0.10726243 0.22866106 0.60899818 -0.008697317 0.99937242 -0.03433872 0
0.11360712 0.22864914 0.60701376 -0.0092913192 0.99936485 -0.034402825 0
0.11720619 0.22870314 0.60761052 -0.0092913192 0.99936485 -0.034402825 0
0.12287381 0.22877446 0.60815191 -0.0092913192 0.99936485 -0.034402825 0
0.12767029 0.22882093 0.60820568 -0.0092913192 0.99936485 -0.034402825 0
0.13272463 0.22887145 0.60828441 -0.010249776 0.99932849 -0.035177633 0
0.13885017 0.22893651 0.60835403 -0.010008738 0.99937862 -0.033795472 0
0.14252248 0.22896227 0.60807627 -0.0099316025 0.9993943 -0.033353172 0
0.14879394 0.22905755 0.60893929 -0.011062651 0.99939549 -0.032959085 0
0.15139329 0.22898139 0.60577512 -0.011297991 0.99935621 -0.034052927 0
0.15755275 0.22909006 0.60694605 -0.011369267 0.99937767 -0.033391126 0
0.16293558 0.22914179 0.60675442 -0.0098666688 0.999367 -0.03417832 0
0.16735573 0.22920664 0.60737383 -0.0098666698 0.99936706 -0.034178324 0
0.17235009 0.22922575 0.60712427 -0.002828938 0.99946958 -0.032442443 0
0.17795318 0.22920606 0.60584867 0.010932137 0.99949098 -0.029972112 0
0.18255481 0.229178 0.6066829 0.021203058 0.9993819 -0.028041076 0
0.18823783 0.22896315 0.60699779 0.070741877 0.997352 -0.016870109 0
0.19226418 0.2285236 0.60709876 0.15796606 0.98740691 0.00862383 0
-0.1859519 0.20955618 0.61125636 -0.33484861 -0.93234307 0.13642858 0
-0.18292001 0.20905489 0.61149299 -0.10589202 -0.99161714 0.074042358 0
-0.17740759 0.20864469 0.61194158 -0.040685877 -0.997666 0.0548377 0
-0.17217088 0.20843765 0.61113274 -0.024566926 -0.99843138 0.0503124 0
-0.16847569 0.20840551 0.61215657 -0.015250362 -0.99874228 0.047763433 0
-0.16430183 0.20837124 0.61281472 -0.016357129 -0.99874789 0.047276724 0
-0.15776339 0.20824365 0.61221713 -0.011049018 -0.99888259 0.045951955 0
-0.15310769 0.20817749 0.61182982 -0.0095318835 -0.99895304 0.044743374 0
-0.14787263 0.20819139 0.61319929 -0.0076230322 -0.9990049 0.043945402 0
-0.14312144 0.20814955 0.61290246 -0.0050190208 -0.99904883 0.043316193 0
-0.13629238 0.20811236 0.6128456 -0.0056000655 -0.99906379 0.042897463 0
-0.13332173 0.20805104 0.61179411 -0.004961729 -0.99906862 0.042862538 0
-0.1272537 0.20804951 0.61221892 -0.0022100781 -0.99916875 0.040705197 0
-0.12313701 0.20807636 0.61310148 -0.0021852755 -0.99917376 0.040583882 0
-0.1180618 0.20801461 0.61186576 -0.0022596833 -0.99915874 0.040947836 0
-0.11238545 0.20805736 0.61312491 -0.001031402 -0.99916476 0.040849071 0
-0.1079601 0.20800209 0.61188531 -0.0010314021 -0.99916482 0.040849075 0
-0.1018548 0.20803964 0.61295491 -0.0007630848 -0.99917501 0.040604427 0
-0.095098928 0.20799895 0.6119976 0.00045507064 -0.99919915 0.040010706 0
-0.091002412 0.20795727 0.61091602 0.00030694949 -0.9992047 0.039873026 0
-0.088423096 0.20805742 0.61343169 1.0707114e-05 -0.99921566 0.03959766 0
-0.082835883 0.20803173 0.61278242 1.0707116e-05 -0.99921578 0.039597668 0
-0.076679409 0.20800523 0.61210179 0.00042972114 -0.99921775 0.039544448 0
-0.073214203 0.20803292 0.61275989 0.00056939246 -0.99921834 0.039526708 0
-0.06753283 0.20801303 0.61217439 0.00066223973 -0.99922162 0.03944283 0
-0.060967177 0.2080916 0.61402929 0.0010336286 -0.99923444 0.039107312 0
-0.056667823 0.20811026 0.61439174 0.0010155059 -0.99923444 0.039109088 0
-0.051439613 0.2080617 0.61302024 0.00097925996 -0.99923426 0.039112628 0
-0.047801033 0.20805663 0.61279994 0.00097926008 -0.99923432 0.039112631 0
-0.038917746 0.20800118 0.61119312 0.00073822209 -0.99924302 0.03889472 0
-0.031427391 0.20802513 0.61173087 0.00036450976 -0.99924499 0.038849946 0
-0.028108507 0.20807762 0.61304522 0.00047530368 -0.99924833 0.038763031 0
-0.021251952 0.2080712 0.61278927 0.00050992682 -0.9992494 0.03873587 0
-0.018599825 0.20804195 0.61201417 -0.00013555416 -0.99924868 0.038757574 0
-0.01302771 0.20809233 0.61338979 -0.0005658748 -0.99924791 0.038772032 0
-0.0061020297 0.20800124 0.61114311 -0.00056587486 -0.99924797 0.038772035 0
-0.0022611176 0.20804638 0.61236989 -0.00063655723 -0.99924999 0.038718108 0
0.0016737863 0.20803532 0.6122762 -0.0021242425 -0.99924749 0.038730655 0
0.007041011 0.20803185 0.61248529 -0.0021735854 -0.99924582 0.038768306 0
0.012324727 0.20804144 0.61302954 -0.0021735854 -0.99924588 0.038768306 0
0.017227383 0.2080497 0.61356372 -0.0030786179 -0.99924469 0.038737893 0
0.020795982 0.20802619 0.61325276 -0.0032294558 -0.99924439 0.038732819 0
0.028300546 0.20793267 0.61146194 -0.0031390344 -0.99924195 0.038803753 0
0.0324466 0.20796213 0.61255515 -0.0032607564 -0.99923933 0.038860578 0
0.0375355 0.20791484 0.61177337 -0.0034729 -0.99923915 0.038846474 0
0.042189639 0.20791583 0.61222047 -0.0036170436 -0.99923354 0.0389768 0
0.04688403 0.20790473 0.61238551 -0.0037611865 -0.99922794 0.039107125 0
0.052697282 0.20785409 0.61165082 -0.0037582447 -0.99922794 0.039107416 0
0.057421695 0.20780741 0.61091137 -0.0037533415 -0.999228 0.0391079 0
0.062905923 0.20783934 0.61224222 -0.0034651477 -0.99921876 0.039368235 0
0.068733558 0.2077952 0.61161506 -0.0032730179 -0.99921256 0.039541788 0
0.0716388 0.20778362 0.61156321 -0.0032730179 -0.99921256 0.039541788 0
0.07724613 0.20778003 0.61188364 -0.0027130861 -0.99921143 0.039612908 0
0.080944814 0.2078045 0.61275417 -0.0027130861 -0.99921143 0.039612908 0
0.088216811 0.20778187 0.61268198 -0.0029456161 -0.99920219 0.039829072 0
0.092248127 0.20777674 0.6128577 -0.0028582758 -0.99919182 0.040094238 0
0.096880101 0.20777044 0.61300129 -0.0019463132 -0.99917018 0.040683053 0
0.10130075 0.20774285 0.61252123 -0.0017489489 -0.99916321 0.040862989 0
0.10805514 0.20775214 0.61303955 -0.0017692685 -0.99916762 0.040753659 0
0.1125438 0.20768984 0.61168039 -0.0013497159 -0.99916762 0.040770497 0
0.11858644 0.20780408 0.61457926 -0.0005512489 -0.99917597 0.040585492 0
0.12468702 0.20778731 0.61424845 -0.0005512489 -0.99917597 0.040585492 0
0.12805085 0.20778666 0.61418808 0.00084114779 -0.99912173 0.041893534 0
0.13166857 0.20767054 0.61122364 0.0022986857 -0.99905956 0.043298818 0
0.13860245 0.20776069 0.6129356 0.0022986855 -0.9990595 0.043298811 0
0.14345039 0.20774859 0.61233246 0.0042436924 -0.99903268 0.043768819 0
0.14800841 0.20778593 0.61261725 0.0061886827 -0.99900186 0.044238649 0
0.15278164 0.20779677 0.61209637 0.0082986364 -0.99891067 0.045919348 0
0.157427 0.20777448 0.61063755 0.013689818 -0.99878865 0.047264814 0
0.16160868 0.20797691 0.6137042 0.013689818 -0.9987886 0.047264814 0
0.17261107 0.20820537 0.61393982 0.03823135 -0.99773318 0.05537856 0
0.17677402 0.20835398 0.61275023 0.076854408 -0.99483836 0.066257991 0
0.18166806 0.20901802 0.61226821 0.26828611 -0.95604289 0.11834098 0
-0.19613583 0.21465725 0.61308998 -0.36947316 -0.91873199 0.1393598 0
-0.19279175 0.21308023 0.61124796 -0.36041367 -0.92268354 0.13695624 0
-0.1892724 0.21112478 0.6108132 -0.5667575 -0.80295432 0.18452758 0
0.18868251 0.212449 0.6124928 0.37250063 -0.91736782 0.14028394 0
0.19217338 0.2138536 0.61276186 0.40298888 -0.90200329 0.15488681 0
0.19507441 0.21464179 0.61007208 0.48167396 -0.86178809 0.15909603 0
-0.20213024 0.21840805 0.61184311 -0.76617956 -0.60179937 0.22540294 0
-0.1980066 0.2152569 0.61166596 -0.48420143 -0.86035061 0.1592038 0
0.1980204 0.21681255 0.61099023 0.65147221 -0.7318787 0.19984375 0
-0.20318064 0.22179188 0.61395282 -0.97306335 -0.0011163376 0.2305351 0
0.20030436 0.22136241 0.61235666 0.96184051 -0.14439934 0.23240416 0
-0.20145996 0.22645371 0.61244994 -0.64918202 0.74716002 0.14252923 0
-0.19779234 0.22842343 0.61240208 -0.30695438 0.95094645 0.038469654 0
-0.19167663 0.22952113 0.61295021 -0.11251511 0.99364239 0.0039018767 0
-0.18215664 0.22989286 0.61272484 -0.0098780748 0.99960732 -0.02622162 0
-0.17830369 0.22988293 0.61191607 0.0080112508 0.99938989 -0.033996556 0
-0.17277269 0.22982708 0.61146337 0.0062190625 0.99944103 -0.03284752 0
-0.16641119 0.22984223 0.61403883 0.013367203 0.99933904 -0.033806484 0
-0.16384551 0.22976333 0.61273247 0.013775736 0.99933958 -0.033623081 0
-0.1553891 0.22960106 0.61153758 0.013861886 0.99935931 -0.032997292 0
-0.15253891 0.22954893 0.61115724 0.013861886 0.99935931 -0.032997292 0
-0.14836699 0.22953141 0.61236131 0.013189711 0.9993732 -0.032852076 0
-0.14381963 0.22949055 0.61288059 0.01251753 0.99938661 -0.032706846 0
-0.13362372 0.2293584 0.61278248 0.013187611 0.99939394 -0.032216221 0
-0.12718379 0.22927265 0.6125325 0.011723974 0.99943113 -0.031623583 0
-0.12297032 0.22921424 0.6122486 0.011765243 0.9993974 -0.032657251 0
-0.11576644 0.22916703 0.61338741 0.011734108 0.99940401 -0.032462686 0
-0.11178812 0.22905695 0.61142921 0.011409077 0.99934512 -0.034339592 0
-0.10621924 0.22904056 0.61283118 0.011249258 0.99938017 -0.033356801 0
-0.10229339 0.22900729 0.61313862 0.011409077 0.99934512 -0.034339592 0
-0.096765116 0.22888109 0.61127424 0.011001742 0.9993614 -0.033997107 0
-0.092776507 0.2289046 0.61323333 0.010751076 0.9993791 -0.033554219 0
-0.087340198 0.22879951 0.61184716 0.010920731 0.99938399 -0.033350948 0
-0.082763337 0.22875164 0.61191201 0.010920733 0.99938411 -0.033350948 0
-0.077803336 0.22870798 0.61222762 0.010920731 0.99938399 -0.033350948 0
-0.074631393 0.22873686 0.61413199 0.010920732 0.99938405 -0.033350948 0
-0.066354975 0.22864294 0.61397868 0.010679888 0.99938709 -0.033339228 0
-0.06284336 0.22861063 0.61413515 0.010679888 0.99938709 -0.033339228 0
-0.057338025 0.22849685 0.61244667 0.010196652 0.99940485 -0.032955293 0
-0.05261321 0.22840358 0.61107999 0.010146986 0.99940538 -0.032953814 0
-0.046594255 0.22842637 0.61361235 0.010047652 0.99940646 -0.032950856 0
-0.042521045 0.22839652 0.61394906 0.010047652 0.99940652 -0.032950856 0
-0.036143336 0.22836205 0.61488765 0.010274386 0.99941158 -0.032725699 0
-0.031833127 0.22822498 0.61205399 0.01016028 0.99941278 -0.032723807 0
-0.027843187 0.228193 0.61228389 0.0097289626 0.99941897 -0.032666255 0
-0.021982696 0.22817272 0.61338001 0.0094619608 0.9994266 -0.03251062 0
-0.017464111 0.22812998 0.61338162 0.0094619608 0.9994266 -0.03251062 0
-0.013661766 0.22806701 0.61234361 0.0053300885 0.99945819 -0.032480422 0
-0.00783615 0.22804002 0.61246932 0.0053300885 0.99945819 -0.032480422 0
-0.0022614286 0.22804523 0.6134733 0.00055745145 0.99947292 -0.032458566 0
0.0038477271 0.2280267 0.61264098 -0.0025596488 0.99946839 -0.03250159 0
0.007483359 0.22805464 0.61321425 -0.0025596488 0.99946839 -0.03250159 0
0.012068162 0.22801188 0.61141008 -0.0043632141 0.99946177 -0.03251484 0
0.016654678 0.22805317 0.61184698 -0.0067679454 0.99944776 -0.032532331 0
0.021676918 0.22816925 0.61436588 -0.0068714409 0.99944514 -0.032592658 0
0.027235419 0.22816133 0.61292464 -0.0073051401 0.99943799 -0.032717053 0
0.032648273 0.22818731 0.6124838 -0.0074742194 0.99943471 -0.032778043 0
0.035875715 0.22819218 0.61189306 -0.0074165869 0.99943328 -0.032835279 0
0.043110713 0.22826242 0.61241925 -0.0073013222 0.99943036 -0.032949749 0
0.048994474 0.22829157 0.6119945 -0.0074782306 0.99942887 -0.032955013 0
0.05078838 0.22831611 0.61233169 -0.0074782306 0.99942887 -0.032955013 0
0.057640821 0.22841473 0.61373848 -0.0078532156 0.99941617 -0.033252921 0
0.062246859 0.22842018 0.61280733 -0.0079469606 0.99941283 -0.033327397 0
0.067268372 0.22847664 0.61330253 -0.0079469625 0.99941295 -0.033327397 0
0.07330779 0.22852381 0.61325508 -0.0081646526 0.99941081 -0.033337984 0
0.077513084 0.22849873 0.61147296 -0.0081646526 0.99941087 -0.033337988 0
0.082741193 0.22857372 0.61244065 -0.0081646526 0.99941081 -0.033337984 0
0.08794117 0.22864623 0.61334562 -0.008059511 0.9994083 -0.033439882 0
0.093509629 0.22873218 0.61455119 -0.008697317 0.99937242 -0.03433872 0
0.1002375 0.22873816 0.61302161 -0.008697317 0.99937242 -0.03433872 0
0.10762499 0.22882648 0.61378735 -0.0083166892 0.99945325 -0.031999391 0
0.11163275 0.22880629 0.61214429 -0.0088682314 0.99940872 -0.03321879 0
0.11801963 0.22884429 0.61152059 -0.0090130866 0.99942571 -0.032665223 0
0.12275691 0.2289384 0.61317033 -0.0089821685 0.99943227 -0.032472149 0
0.12633362 0.22895277 0.61260873 -0.0089288205 0.9994607 -0.031599779 0
0.13089956 0.22901841 0.61326832 -0.01041885 0.99942565 -0.032248203 0
0.13767502 0.22906265 0.61255592 -0.009815895 0.99941736 -0.032689702 0
0.14427559 0.22911879 0.61229062 -0.009815895 0.99941736 -0.032689702 0
0.14813378 0.22916235 0.61233854 -0.011062651 0.99939549 -0.032959085 0
0.15287651 0.2292362 0.61295009 -0.011916361 0.99936295 -0.033640057 0
0.15754278 0.22926414 0.61212301 -0.01167588 0.99935967 -0.033823159 0
0.16254449 0.2292788 0.61089677 -0.01078017 0.99937153 -0.033768285 0
0.16535841 0.2292957 0.61055475 -0.0098666698 0.99936706 -0.034178324 0
0.17167096 0.22940369 0.61256385 -0.0046619168 0.99942392 -0.03361766 0
0.17730847 0.22942185 0.61281019 0.010932137 0.99949098 -0.029972112 0
0.18295509 0.22931749 0.61180407 0.043358084 0.99886805 -0.019564319 0
0.18878129 0.22895983 0.61198199 0.115164 0.99333894 0.0038800742 0
0.19224428 0.22844057 0.61351436 0.17561235 0.98436034 0.013964332 0
0.19672677 0.22684152 0.61207592 0.50235116 0.85814953 0.10593727 0
-0.18253116 0.20953447 0.61820388 -0.15167864 -0.98454243 0.087577157 0
-0.1774451 0.20900649 0.61822939 -0.054981828 -0.99674362 0.058985077 0
-0.17387243 0.2088756 0.61898702 -0.024595896 -0.99842745 0.050375029 0
-0.16614942 0.20853639 0.61566395 -0.016357129 -0.99874789 0.047276724 0
-0.16350064 0.20864987 0.6189602 -0.017097775 -0.99863642 0.049325142 0
-0.1559339 0.20839298 0.6159032 -0.011049017 -0.99888253 0.045951951 0
-0.1512232 0.20837291 0.61659968 -0.011049018 -0.99888259 0.045951955 0
-0.14809977 0.2083979 0.61782944 -0.0089250179 -0.99898022 0.044259895 0
-0.14281155 0.2083668 0.61794883 -0.0050190208 -0.99904883 0.043316193 0
-0.13666353 0.20829701 0.61709762 -0.0061811074 -0.99907827 0.042478703 0
-0.13353352 0.20829947 0.61761105 -0.0061811074 -0.99907827 0.042478699 0
-0.12709126 0.2082835 0.61790818 -0.0031087364 -0.99913567 0.041451532 0
-0.12247945 0.2082309 0.61694151 -0.0021852755 -0.99917376 0.040583882 0
-0.11754242 0.2082158 0.61683619 -0.0021852755 -0.99917376 0.040583882 0
-0.11278158 0.20822118 0.6171664 -0.00093399989 -0.99918622 0.040324673 0
-0.10794607 0.20816587 0.61590827 -0.00093399989 -0.99918622 0.040324673 0
-0.10245567 0.20819211 0.61668855 -0.00099893473 -0.99917197 0.040674273 0
-0.098488569 0.20827092 0.61874461 -0.0011774004 -0.99919552 0.040086567 0
-0.091603488 0.20823798 0.61799896 0.00018389181 -0.99925494 0.038594473 0
-0.078036025 0.20819697 0.61694896 0.00015037847 -0.99921644 0.039579928 0
-0.071950778 0.20821311 0.61729658 0.00056939246 -0.99921834 0.039526708 0
-0.066676229 0.20823957 0.61788946 0.0005693924 -0.99921834 0.039526701 0
-0.061246723 0.20824288 0.61788958 0.00072413799 -0.99922377 0.039386913 0
-0.056884941 0.20823066 0.6174745 0.0010245672 -0.99923444 0.039108198 0
-0.051867731 0.20823736 0.61751997 0.00093105261 -0.99923611 0.039069053 0
-0.04689952 0.20821548 0.61685067 0.00073822209 -0.99924302 0.03889472 0
-0.041391592 0.20820454 0.61646485 0.00073822209 -0.99924302 0.03889472 0
-0.037746266 0.20819846 0.61623937 0.00073822209 -0.99924302 0.03889472 0
-0.030533845 0.20833221 0.61961138 0.0002675651 -0.99924207 0.038926002 0
-0.027273957 0.20823121 0.61698818 0.00038874598 -0.99924576 0.038830936 0
-0.021612713 0.2082185 0.61659366 0.00050992676 -0.99924928 0.03873587 0
-0.018499054 0.20828536 0.61829317 -2.7973996e-05 -0.9992488 0.038753957 0
-0.011891185 0.20826514 0.61786008 -0.00058354548 -0.99924845 0.038758554 0
-0.002292912 0.20832941 0.61967373 -0.00063655723 -0.99924999 0.038718108 0
0.0048318114 0.2083199 0.61979228 -0.0021077949 -0.99924797 0.038718108 0
0.0078634657 0.20822935 0.61762315 -0.0021516553 -0.9992466 0.038751572 0
0.012339214 0.2082608 0.61868417 -0.0021735854 -0.99924588 0.038768306 0
0.018349921 0.20816702 0.61668217 -0.0032294558 -0.99924439 0.038732819 0
0.022965237 0.20821626 0.61833447 -0.0031088938 -0.99924111 0.038827393 0
0.027042856 0.2081348 0.61656207 -0.0030486125 -0.99923944 0.038874678 0
0.031456016 0.20818503 0.61820292 -0.0031334697 -0.99923933 0.038869034 0
0.037760906 0.20811646 0.61697984 -0.0034729 -0.99923915 0.038846474 0
0.043338835 0.20813715 0.61801052 -0.0034729 -0.99923915 0.038846474 0
0.048254535 0.20806637 0.6166473 -0.0037611865 -0.99922794 0.039107125 0
0.051254708 0.20805666 0.61668855 -0.0037596177 -0.99922788 0.039107278 0
0.0576423 0.20808406 0.61799043 -0.0034788712 -0.99921924 0.039355833 0
0.061097853 0.20803261 0.61698222 -0.0032730179 -0.99921256 0.039541788 0
0.068429075 0.20799673 0.61668211 -0.0032730179 -0.99921256 0.039541788 0
0.073094353 0.20802617 0.61780113 -0.0029930519 -0.99921203 0.039577346 0
0.076460153 0.20798969 0.61711836 -0.0027130861 -0.99921143 0.039612908 0
0.084300697 0.20798184 0.61746073 -0.0028010095 -0.99923122 0.039103922 0
0.088558599 0.20793104 0.61646736 -0.0027130861 -0.99921143 0.039612908 0
0.091610886 0.20795785 0.61736268 -0.0022624186 -0.99921685 0.039504841 0
0.098719954 0.20786674 0.61544055 -0.0017489492 -0.99916327 0.040862992 0
0.1022108 0.20791262 0.6167345 -0.0018251464 -0.99917978 0.040452994 0
0.1075165 0.2079318 0.6174525 -0.0018505456 -0.99918526 0.040316325 0
0.11237691 0.20796433 0.61843753 -0.0010709679 -0.99917984 0.040477835 0
0.11751519 0.2079244 0.61752653 -0.0005512489 -0.99917597 0.040585492 0
0.12182182 0.20798226 0.61896241 0.00037701573 -0.9991402 0.041457534 0
0.12877417 0.20802508 0.61977214 0.0034315754 -0.99909139 0.042482309 0
0.13369291 0.20792697 0.61707234 0.0030539462 -0.99908096 0.04275449 0
0.13831455 0.20800114 0.6185022 0.0024605272 -0.99906415 0.043182172 0
0.1438807 0.20793015 0.61645174 0.0061886827 -0.99900186 0.044238649 0
0.14683434 0.2079979 0.6175198 0.0068920059 -0.99897224 0.044798918 0
0.15131243 0.20803197 0.61747885 0.0082986364 -0.99891067 0.045919348 0
0.15913914 0.20813206 0.61769676 0.014084211 -0.9987309 0.048355173 0
0.16234121 0.20824227 0.61902034 0.015773144 -0.99862999 0.049893025 0
0.1694119 0.20831965 0.61779279 0.021899175 -0.99849045 0.050371669 0
0.17212945 0.20838811 0.61749667 0.043673627 -0.9974159 0.057044134 0
0.17579089 0.2085809 0.6176492 0.049775682 -0.99710095 0.057550963 0
0.18108007 0.2095032 0.61813283 0.32457307 -0.93509156 0.14232397 0
-0.1919301 0.21364602 0.61711639 -0.35283393 -0.92311436 0.15286627 0
-0.18823022 0.21163724 0.61610109 -0.55753899 -0.80165869 0.21562374 0
0.18469831 0.21191078 0.61953819 0.55667722 -0.80224508 0.21566941 0
0.18645553 0.21260668 0.61894077 0.36790884 -0.91560626 0.16219828 0
0.19139896 0.21401174 0.61597383 0.36317328 -0.92004216 0.14706336 0
-0.19829448 0.21666074 0.61746305 -0.53273052 -0.82524043 0.18755388 0
0.19725677 0.21840587 0.61809266 0.76605296 -0.59864479 0.23406716 0
-0.20257482 0.22332788 0.61624396 -0.95987219 0.17157 0.22183141 0
0.19851851 0.22174177 0.61852533 0.95536089 0.039287161 0.29281732 0
-0.20011812 0.22679663 0.61687189 -0.50655663 0.85553592 0.10704567 0
-0.19889681 0.22754376 0.61674225 -0.48132768 0.86992311 0.10750531 0
-0.19254845 0.22941418 0.61643887 -0.13856576 0.99028486 0.011630677 0
-0.18684307 0.22987041 0.61688721 -0.042801015 0.99898607 -0.013963315 0
-0.18388611 0.22996995 0.61671513 -0.0092649451 0.99968922 -0.023144685 0
-0.1776325 0.22998556 0.61509162 0.0080112508 0.99938989 -0.033996556 0
-0.16804206 0.22999193 0.61780751 0.013775737 0.99933964 -0.033623084 0
-0.15838255 0.22990175 0.61912614 0.014599734 0.9993214 -0.033817399 0
-0.15221603 0.22978257 0.61832708 0.014628451 0.99932808 -0.033608802 0
-0.14689 0.22966599 0.61705077 0.013189711 0.9993732 -0.032852076 0
-0.14335155 0.22965725 0.61815321 0.01251753 0.99938661 -0.032706846 0
-0.13717647 0.22955987 0.61758012 0.013053596 0.99939251 -0.032314349 0
-0.13497546 0.22950374 0.61673766 0.013187611 0.99939394 -0.032216217 0
-0.12820461 0.22944002 0.61742526 0.012160608 0.99941313 -0.032024793 0
-0.12247805 0.22937669 0.61756516 0.011578427 0.99943703 -0.031489838 0
-0.11761292 0.2293309 0.61790043 0.011578427 0.99943703 -0.031489838 0
-0.11272528 0.22930902 0.61898309 0.011145867 0.99944401 -0.031424019 0
-0.10878348 0.22923547 0.61801738 0.010929587 0.99944746 -0.031391114 0
-0.10385922 0.22915845 0.61727923 0.010929586 0.99944741 -0.03139111 0
-0.097353019 0.2290955 0.61754042 0.010929586 0.99944741 -0.03139111 0
-0.092327274 0.2289931 0.61605269 0.010740864 0.99941736 -0.032396387 0
-0.086965874 0.22899094 0.61776102 0.01056358 0.99945295 -0.0313394 0
-0.081817143 0.2289207 0.61729777 0.01083145 0.99940169 -0.032848075 0
-0.07816872 0.2288395 0.61604887 0.010920732 0.99938405 -0.033350948 0
-0.07260295 0.22884755 0.61811072 0.010679888 0.99938709 -0.033339228 0
-0.068982802 0.22874069 0.61606717 0.010679888 0.99938709 -0.033339228 0
-0.060445368 0.22868642 0.61717498 0.010679888 0.99938709 -0.033339228 0
-0.052801739 0.22864929 0.61847353 0.010196652 0.99940479 -0.032955289 0
-0.048587777 0.22857508 0.61751515 0.010047652 0.99940646 -0.032950856 0
-0.043845188 0.22847116 0.61580932 0.010047652 0.99940646 -0.032950856 0
-0.037578132 0.22847174 0.61778677 0.010274386 0.99941158 -0.032725699 0
-0.031926379 0.2284345 0.6184206 0.01016028 0.99941278 -0.032723807 0
-0.028197907 0.22833207 0.61642647 0.0098179625 0.99941641 -0.032718133 0
-0.021566149 0.22831288 0.61781019 0.0094619608 0.9994266 -0.03251062 0
-0.015470427 0.22823496 0.61718076 0.0080846846 0.999439 -0.032500613 0
-0.012834529 0.22824919 0.61808503 0.0053300885 0.99945819 -0.032480419 0
-0.0082371077 0.22823365 0.61836165 0.0053300881 0.99945813 -0.032480422 0
-0.0028761248 0.22821869 0.61876708 0.0042302948 0.99946433 -0.032452922 0
0.0023480817 0.22817138 0.61721134 -0.0025995029 0.9994691 -0.032477196 0
0.0071744067 0.22819209 0.6174646 -0.0025596488 0.99946839 -0.03250159 0
0.013199404 0.22822328 0.61778891 -0.0057158805 0.99945462 -0.032524701 0
0.016441789 0.2283169 0.61999357 -0.0067679454 0.99944776 -0.032532331 0
0.022955181 0.22829619 0.61797476 -0.0070784297 0.99943972 -0.032713301 0
0.028930452 0.22833028 0.61770666 -0.007531852 0.9994362 -0.032720812 0
0.032489464 0.22832145 0.61661774 -0.0075318511 0.99943614 -0.032720804 0
0.036754649 0.22836776 0.61705029 -0.0075318515 0.99943614 -0.032720808 0
0.041423131 0.22840974 0.6172666 -0.0074165869 0.99943328 -0.032835279 0
0.046951506 0.22846067 0.61758035 -0.0073518683 0.99943 -0.032951254 0
0.052933797 0.22854383 0.61873591 -0.0077907182 0.99941826 -0.03320327 0
0.059137113 0.22854814 0.61738575 -0.0079469616 0.99941289 -0.033327397 0
0.063443683 0.22860062 0.61793286 -0.0079469625 0.99941295 -0.033327397 0
0.065971471 0.22858398 0.61683124 -0.0079469606 0.99941289 -0.033327397 0
0.071146742 0.22869426 0.61889404 -0.0081646526 0.99941087 -0.033337988 0
0.078229509 0.22871345 0.61776596 -0.0078682275 0.99946743 -0.031669322 0
0.080513105 0.22869334 0.6165722 -0.0081646526 0.99941087 -0.033337988 0
0.088818118 0.22878152 0.6172632 -0.0077200066 0.99949467 -0.03083496 0
0.091322258 0.22884393 0.61862242 -0.0082364026 0.99948013 -0.031169111 0
0.097648397 0.22887011 0.61777812 -0.0082215257 0.99947262 -0.031414535 0
0.10170084 0.22892082 0.61833084 -0.0082215257 0.99947262 -0.031414535 0
0.10852703 0.22895467 0.61762226 -0.0082215257 0.99947262 -0.031414535 0
0.11322711 0.22897738 0.61706311 -0.0088275811 0.99946457 -0.031506766 0
0.11961801 0.22898114 0.61539173 -0.008827582 0.99946463 -0.031506766 0
0.12312762 0.22906274 0.61698812 -0.009232535 0.99944907 -0.031878818 0
0.12802714 0.22913614 0.61781496 -0.0099269319 0.99943358 -0.032156527 0
0.13744441 0.22922656 0.61763674 -0.009815895 0.99941736 -0.032689702 0
0.14269102 0.22925138 0.61681235 -0.0103146 0.99940884 -0.032797463 0
0.1522243 0.22937101 0.61716574 -0.01234321 0.99934626 -0.03398053 0
0.15860224 0.22940114 0.61580509 -0.011008544 0.99937254 -0.033665773 0
0.16295128 0.22951655 0.61780918 -0.011008543 0.99937248 -0.033665769 0
0.1670441 0.22959556 0.61905301 -0.0021521072 0.99965394 -0.02621755 0
0.17142332 0.22957131 0.61781359 -0.0029323259 0.99959898 -0.028165692 0
0.17713253 0.22954185 0.61771077 0.014092471 0.99966282 -0.021812104 0
0.18407422 0.22932094 0.61551344 0.04644011 0.99881965 -0.014236696 0
0.1880182 0.22904183 0.61772597 0.10806262 0.99413645 0.0038996739 0
0.19265375 0.22819534 0.61601365 0.28966111 0.95571572 0.051998351 0
0.19684443 0.22599189 0.61807609 0.69771612 0.69835365 0.15966962 0
-0.18038793 0.23001888 0.61714745 -0.012310655 0.99969971 -0.021190086 0
-0.17627636 0.23004594 0.6175046 0.0049219565 0.99964249 -0.02628185 0
-0.17245331 0.23002768 0.61763042 0.0052718339 0.99955463 -0.029373303 0
-0.18186986 0.20994186 0.62315899 -0.31542674 -0.93602216 0.15610437 0
-0.17670862 0.2092412 0.62276161 -0.07694374 -0.99466521 0.068707712 0
-0.17186171 0.20903897 0.62319607 -0.023840027 -0.99843115 0.050666165 0
-0.16743457 0.20887356 0.62195557 -0.021426497 -0.99846995 0.050977673 0
-0.16160446 0.20876765 0.62200218 -0.017097773 -0.99863642 0.049325138 0
-0.15818188 0.20873944 0.62261736 -0.017097775 -0.99863642 0.049325142 0
-0.15183559 0.20868266 0.62314856 -0.011310107 -0.99883902 0.046826433 0
-0.14664726 0.20860934 0.62283278 -0.011223079 -0.99885362 0.046534944 0
-0.14239867 0.20853333 0.62184322 -0.0057162745 -0.99906671 0.042813711 0
-0.13876539 0.2085157 0.62193567 -0.0061811074 -0.99907827 0.042478703 0
-0.13355426 0.2086104 0.62492108 -0.0061811074 -0.99907827 0.042478703 0
-0.12688868 0.20851509 0.62346685 -0.0035704649 -0.99911606 0.041885335 0
-0.12107231 0.20846906 0.62284756 -0.0032934281 -0.99912786 0.041625056 0
-0.11874664 0.20845869 0.62275118 -0.0021852755 -0.99917376 0.040583882 0
-0.1117007 0.20842336 0.62220132 -0.00093399989 -0.99918622 0.040324673 0
-0.10569517 0.2084793 0.62372637 -0.00093399989 -0.99918622 0.040324673 0
-0.10258285 0.20840061 0.62184834 -0.00093399989 -0.99918622 0.040324673 0
-0.09716256 0.20837276 0.62134498 -0.001664201 -0.99921381 0.039610341 0
-0.092763171 0.20841551 0.62254894 -0.00064278522 -0.9992224 0.039425116 0
-0.082606934 0.20842516 0.62280262 0.00018389181 -0.999255 0.038594473 0
-0.078487523 0.20837961 0.62160361 0.00018389181 -0.99925494 0.038594473 0
-0.074032441 0.20846096 0.62367105 0.00073450204 -0.99925792 0.038511369 0
-0.06763763 0.20843144 0.6227861 0.00070698379 -0.99925137 0.038680591 0
-0.062246114 0.20845401 0.62326878 0.00067946559 -0.99924487 0.038849819 0
-0.059582867 0.20845588 0.62326306 0.00073450204 -0.99925792 0.038511369 0
-0.054369256 0.20837316 0.62105066 0.00097926008 -0.99923432 0.039112631 0
-0.049881525 0.20833871 0.6200726 0.00073822209 -0.99924302 0.03889472 0
-0.039027669 0.20844512 0.62260091 0.00073822209 -0.99924296 0.03889472 0
-0.031171832 0.20844173 0.62242687 0.00026756516 -0.99924213 0.038926005 0
-0.027594918 0.20843235 0.62216073 0.0002675651 -0.99924201 0.038926002 0
-0.017512036 0.2084652 0.62293816 -0.00025850293 -0.99924845 0.038761705 0
-0.01232464 0.20837352 0.62064731 -0.00063655723 -0.99924999 0.038718108 0
-0.0067126886 0.20842953 0.62218493 -0.00063655718 -0.99924994 0.038718104 0
-0.002141335 0.20846581 0.6232096 -0.0013721765 -0.99924928 0.038718116 0
0.0014436338 0.20834105 0.62015402 -0.0021077949 -0.99924797 0.038718108 0
0.0081357704 0.2084337 0.62290961 -0.0021077949 -0.99924797 0.038718108 0
0.013258229 0.20840065 0.62234062 -0.0021516553 -0.9992466 0.038751572 0
0.018420501 0.20831577 0.62052512 -0.0032294556 -0.99924445 0.038732819 0
0.023214003 0.20833319 0.62136161 -0.0030486125 -0.99923944 0.038874678 0
0.027681729 0.2083609 0.62242377 -0.0030486125 -0.99923944 0.038874682 0
0.034131806 0.20833421 0.62225658 -0.0034729 -0.99923915 0.038846474 0
0.03704612 0.20832147 0.62218982 -0.0034729 -0.99923921 0.038846474 0
0.042383619 0.20836689 0.62383473 -0.0034729 -0.99923915 0.038846474 0
0.047688484 0.20827636 0.62198061 -0.0034729 -0.99923915 0.038846474 0
0.052056763 0.20826569 0.62210602 -0.0037611865 -0.99922794 0.039107125 0
0.057015438 0.20827127 0.62268865 -0.0033847664 -0.99923915 0.038855031 0
0.064459652 0.20832264 0.62466908 -0.0034406402 -0.99925226 0.038511649 0
0.066782378 0.20816089 0.6206947 -0.0032730177 -0.9992125 0.039541785 0
0.074361637 0.20815229 0.62110466 -0.0028889324 -0.99925077 0.038594928 0
0.076336786 0.2082036 0.62258011 -0.0028889324 -0.99925083 0.038594928 0
0.083391972 0.2081397 0.62145442 -0.0028889324 -0.99925071 0.038594928 0
0.087644748 0.20817836 0.62275124 -0.0026049833 -0.99924046 0.038880222 0
0.092762128 0.20817974 0.62302721 -0.0013141347 -0.99921542 0.039581895 0
0.095510654 0.20819639 0.62352693 -0.0011333972 -0.99921441 0.03961467 0
0.10228186 0.20816165 0.62290996 -0.001731021 -0.99919015 0.040199384 0
0.10861516 0.20814359 0.62275231 -0.0018505456 -0.99918526 0.040316325 0
0.11869997 0.20809565 0.62174493 0.00084114779 -0.99912173 0.041893534 0
0.12163264 0.20812356 0.62235105 0.00084114773 -0.99912167 0.041893527 0
0.1259765 0.20809481 0.62157863 0.00084114779 -0.99912173 0.041893534 0
0.13167274 0.20812887 0.621979 0.0034315754 -0.99909133 0.042482313 0
0.13524798 0.20822154 0.62386972 0.0034315754 -0.99909139 0.042482309 0
0.14181952 0.20823149 0.6234985 0.0066865114 -0.99893248 0.045707919 0
