# .PCD v0.7 - Point Cloud Data file format
VERSION 0.7
FIELDS x y z normal_x normal_y normal_z curvature
SIZE 4 4 4 4 4 4 4
TYPE F F F F F F F
COUNT 1 1 1 1 1 1 1
WIDTH 645
HEIGHT 1
VIEWPOINT 0 0 0 1 0 0 0
POINTS 645
DATA ascii
0.14410347 0.12223884 0.41317198 -4.7146001e-05 -0.01408335 -0.99990088 0
0.15416421 0.12749015 0.41309753 -4.7145993e-05 -0.014083349 -0.99990082 0
0.16569319 0.1247493 0.41313562 -3.9847662e-05 -0.01408273 -0.99990082 0
0.17653278 0.12338523 0.41315433 -4.7005316e-05 -0.014075088 -0.99990094 0
0.18513359 0.12640816 0.41311142 -4.7005313e-05 -0.014075087 -0.99990094 0
0.197073 0.123349 0.41315392 -4.7005316e-05 -0.014075088 -0.99990094 0
0.20580204 0.12295661 0.41339627 0.12327738 -0.0033935669 -0.99236649 0
0.2132751 0.12499948 0.41666916 0.76530463 0.053276867 -0.64145958 0
-0.18309036 0.1353215 0.41560787 -0.77156872 0.14038983 -0.62046146 0
-0.17577931 0.13317172 0.41325089 -0.082257532 0.0022368981 -0.99660861 0
-0.16416639 0.13486581 0.41300881 -4.7008289e-05 -0.014075124 -0.99990094 0
-0.15580225 0.13554274 0.41299883 -4.7008285e-05 -0.014075126 -0.99990094 0
-0.14471374 0.13693124 0.4129788 -6.0307022e-05 -0.014078002 -0.99990088 0
-0.13204925 0.13377605 0.41302252 -4.6984205e-05 -0.014083353 -0.99990082 0
-0.12689343 0.13471486 0.41300905 -4.6984213e-05 -0.014083354 -0.99990088 0
-0.11537341 0.13494255 0.41300529 -4.6984209e-05 -0.014083354 -0.99990082 0
-0.10537269 0.13477615 0.41300714 -4.6984213e-05 -0.014083353 -0.99990082 0
-0.094367132 0.13403597 0.41301697 -4.6984205e-05 -0.014083353 -0.99990082 0
-0.081986859 0.13548033 0.41299611 -4.6985082e-05 -0.014083354 -0.99990082 0
-0.074376896 0.13521208 0.41299957 -4.698554e-05 -0.014083355 -0.99990082 0
-0.06481348 0.13584088 0.41299024 -4.6985948e-05 -0.014083355 -0.99990082 0
-0.05393355 0.13506283 0.41300067 -4.7002446e-05 -0.014083351 -0.99990082 0
-0.04705612 0.13513748 0.4129993 -4.7193822e-05 -0.014083316 -0.99990082 0
-0.035051625 0.13460241 0.41300631 -4.7216919e-05 -0.014083311 -0.99990082 0
-0.024195435 0.13679285 0.41297498 -4.7216919e-05 -0.014083311 -0.99990082 0
-0.014150805 0.13523987 0.41299632 -4.722743e-05 -0.014083321 -0.99990082 0
-0.0056499294 0.13534155 0.4129945 -4.7244241e-05 -0.014083332 -0.99990082 0
0.0051144925 0.13472889 0.41300264 -4.7126734e-05 -0.014083337 -0.99990088 0
0.013647483 0.13233951 0.41303584 -4.7087571e-05 -0.014083332 -0.99990082 0
0.024729189 0.13665189 0.4129746 -4.7086804e-05 -0.014083337 -0.99990088 0
0.035035685 0.13421422 0.41300842 -4.7081416e-05 -0.014083342 -0.99990082 0
0.044612557 0.13586545 0.41298473 -4.7081416e-05 -0.014083343 -0.99990082 0
0.054266255 0.13673261 0.41297206 -4.7081416e-05 -0.014083342 -0.99990082 0
0.065071814 0.13485239 0.41299802 -4.7081419e-05 -0.014083342 -0.99990082 0
0.074910268 0.13518487 0.41299289 -4.7081416e-05 -0.014083342 -0.99990082 0
0.083774641 0.13639031 0.41297552 -4.7146539e-05 -0.014083349 -0.99990082 0
0.094280012 0.13582805 0.41298297 -4.7146536e-05 -0.014083351 -0.99990082 0
0.10577162 0.1352085 0.41299117 -4.7146452e-05 -0.014083351 -0.99990082 0
0.11480844 0.13400657 0.41300762 -4.7146099e-05 -0.01408335 -0.99990082 0
0.1252756 0.13357796 0.41301316 -4.7145993e-05 -0.014083347 -0.99990082 0
0.13501619 0.13424382 0.41300333 -4.7145993e-05 -0.014083349 -0.99990082 0
0.14532349 0.13557422 0.4129841 -4.7145993e-05 -0.014083348 -0.99990082 0
0.15600747 0.13595787 0.4129782 -4.7145997e-05 -0.014083349 -0.99990088 0
0.16446307 0.13628128 0.41297323 -4.2128395e-05 -0.014082925 -0.99990088 0
0.17455551 0.13415307 0.41300285 -3.3718828e-05 -0.014079462 -0.99990094 0
0.18463929 0.13557442 0.4129824 -4.7005313e-05 -0.014075087 -0.99990094 0
0.19582389 0.13462247 0.41299534 -4.7155776e-05 -0.014075138 -0.99990094 0
0.20532292 0.13495858 0.41336665 0.11231761 -0.0047628968 -0.99366093 0
0.21211934 0.1349941 0.41588831 0.71318835 0.046267517 -0.69944382 0
-0.18196754 0.1448658 0.41652822 -0.88317657 0.16519864 -0.43898571 0
-0.1751119 0.14461486 0.41331443 -0.092419602 0.0028781884 -0.99571598 0
-0.16545093 0.14475924 0.41286954 -4.7325593e-05 -0.014074978 -0.99990094 0
-0.15499383 0.14476946 0.41286892 -4.7008281e-05 -0.014075126 -0.99990094 0
-0.14584704 0.14591391 0.41285241 -6.4462882e-05 -0.014078901 -0.99990088 0
-0.13597618 0.1461961 0.41284776 -5.6382883e-05 -0.014081511 -0.99990082 0
-0.12394059 0.14328034 0.41288823 -4.6984205e-05 -0.014083353 -0.99990082 0
-0.11619136 0.14459063 0.41286942 -4.6984205e-05 -0.014083353 -0.99990082 0
-0.1029235 0.14583701 0.41285124 -4.6984209e-05 -0.014083355 -0.99990088 0
-0.095517077 0.14614774 0.41284651 -4.6985297e-05 -0.014083355 -0.99990082 0
-0.083955117 0.14640425 0.4128423 -4.6985944e-05 -0.014083355 -0.99990082 0
-0.076299071 0.14399493 0.41287592 -4.6985948e-05 -0.014083355 -0.99990082 0
-0.063896224 0.14623795 0.41284376 -4.6985948e-05 -0.014083354 -0.99990082 0
-0.055585433 0.14533097 0.41285616 -4.6985941e-05 -0.014083355 -0.99990082 0
-0.044033803 0.1447296 0.41286406 -4.7193822e-05 -0.014083316 -0.99990082 0
-0.036108106 0.14386439 0.41287589 -4.7216919e-05 -0.014083311 -0.99990082 0
-0.024458371 0.14437795 0.41286808 -4.7220554e-05 -0.014083314 -0.99990082 0
-0.014324455 0.1458759 0.41284654 -4.7244241e-05 -0.014083335 -0.99990082 0
-0.0051999078 0.1451654 0.4128561 -4.7244241e-05 -0.014083335 -0.99990082 0
0.0058371262 0.1444732 0.41286534 -4.7130299e-05 -0.014083334 -0.99990082 0
0.016372267 0.14463647 0.41286254 -4.7087571e-05 -0.014083333 -0.99990082 0
0.025491359 0.14599857 0.41284293 -4.7087568e-05 -0.014083335 -0.99990082 0
0.034054562 0.14557758 0.41284844 -4.7087571e-05 -0.014083335 -0.99990088 0
0.044676065 0.14574552 0.41284561 -4.7083468e-05 -0.014083341 -0.99990082 0
0.056124818 0.14440879 0.41286388 -4.7081416e-05 -0.014083343 -0.99990082 0
0.065293849 0.14693585 0.41282782 -4.7081419e-05 -0.014083343 -0.99990082 0
0.074372292 0.14548072 0.41284788 -4.7089565e-05 -0.014083342 -0.99990082 0
0.086637437 0.14430727 0.41286388 -4.7146539e-05 -0.014083348 -0.99990082 0
0.094397239 0.14453736 0.41286021 -4.7146539e-05 -0.01408335 -0.99990082 0
0.10490298 0.14465721 0.41285807 -4.7146532e-05 -0.014083352 -0.99990082 0
0.11348719 0.14564224 0.41284376 -4.7146532e-05 -0.014083352 -0.99990082 0
0.12521626 0.14479388 0.41285518 -4.7146194e-05 -0.01408335 -0.99990082 0
0.13458452 0.14439501 0.41286036 -4.7146073e-05 -0.014083349 -0.99990082 0
0.14448364 0.14473687 0.41285506 -4.7145993e-05 -0.014083347 -0.99990082 0
0.15624952 0.14619622 0.41283396 -4.7145993e-05 -0.01408335 -0.99990082 0
0.16466115 0.14487551 0.41285223 -3.9426606e-05 -0.014082694 -0.99990082 0
0.17724754 0.1454439 0.41284379 -3.7040449e-05 -0.014078367 -0.99990088 0
0.18576279 0.14602821 0.41283518 -4.7005316e-05 -0.014075088 -0.99990094 0
0.19568178 0.14475812 0.41285262 -4.735716e-05 -0.014075209 -0.99990094 0
0.20432609 0.14467968 0.4131645 0.073900737 -0.0089304941 -0.99722558 0
0.21163614 0.1445473 0.41601259 0.82741022 0.059006602 -0.55848944 0
-0.18094994 0.1524432 0.41714382 -0.92006332 0.17302711 -0.35148987 0
-0.17537943 0.15701136 0.41423282 -0.42568803 0.066773966 -0.90240288 0
-0.16565152 0.15551443 0.41271827 -4.757239e-05 -0.014074863 -0.99990088 0
-0.15513173 0.15539803 0.41271934 -4.9537055e-05 -0.014075649 -0.99990094 0
-0.14450699 0.15426584 0.41273472 -6.6956389e-05 -0.01407944 -0.99990082 0
-0.13370211 0.15494077 0.41272447 -5.3641605e-05 -0.014082049 -0.99990082 0
-0.12435804 0.15512258 0.41272143 -4.6984205e-05 -0.014083353 -0.99990082 0
-0.1159035 0.15560581 0.41271427 -4.6984365e-05 -0.014083355 -0.99990082 0
-0.10376065 0.15400797 0.41273621 -4.6985471e-05 -0.014083355 -0.99990082 0
-0.095712282 0.15528516 0.41271779 -4.6985941e-05 -0.014083355 -0.99990082 0
-0.08462064 0.15358756 0.41274118 -4.6985948e-05 -0.014083355 -0.99990082 0
-0.073828802 0.15432866 0.41273025 -4.6985948e-05 -0.014083355 -0.99990082 0
-0.065347888 0.15373819 0.41273817 -4.6985948e-05 -0.014083354 -0.99990082 0
-0.055358082 0.15631992 0.41270137 -4.6985941e-05 -0.014083355 -0.99990082 0
-0.042410828 0.15608338 0.41270408 -4.7193822e-05 -0.014083316 -0.99990082 0
-0.035733726 0.15509494 0.41271773 -4.7216923e-05 -0.014083311 -0.99990082 0
-0.025064308 0.15498284 0.41271877 -4.7240599e-05 -0.014083332 -0.99990082 0
-0.013388048 0.15389149 0.41273358 -4.7244241e-05 -0.014083333 -0.99990082 0
-0.004317034 0.1537828 0.41273469 -4.7244241e-05 -0.014083335 -0.99990082 0
0.0032998582 0.15556574 0.41270924 -4.7171929e-05 -0.014083335 -0.99990082 0
0.013515421 0.15468188 0.41272119 -4.7087571e-05 -0.014083334 -0.99990082 0
0.026365723 0.15514356 0.41271406 -4.7087571e-05 -0.014083332 -0.99990082 0
0.034762312 0.1564832 0.41269481 -4.7087571e-05 -0.014083332 -0.99990082 0
0.044982523 0.15465753 0.41272002 -4.7087571e-05 -0.014083333 -0.99990082 0
0.054449853 0.15457371 0.41272077 -4.7084221e-05 -0.01408334 -0.99990082 0
0.065602362 0.15376444 0.41273165 -4.7081419e-05 -0.014083342 -0.99990082 0
0.073788211 0.15507278 0.41271284 -4.7086844e-05 -0.014083342 -0.99990082 0
0.084442779 0.1547042 0.41271752 -4.7146532e-05 -0.014083352 -0.99990082 0
0.09442354 0.15455259 0.41271916 -4.7146539e-05 -0.014083349 -0.99990082 0
0.10417757 0.15504716 0.41271174 -4.7146536e-05 -0.014083348 -0.99990082 0
0.11557126 0.15404695 0.4127253 -4.7146539e-05 -0.01408335 -0.99990082 0
0.12443417 0.15467402 0.41271606 -4.7146536e-05 -0.014083351 -0.99990082 0
0.13633181 0.15545796 0.41270447 -4.7146455e-05 -0.014083351 -0.99990082 0
0.14591846 0.15503915 0.41270989 -4.7146052e-05 -0.014083347 -0.99990082 0
0.15582165 0.15545517 0.41270357 -4.7145997e-05 -0.014083349 -0.99990088 0
0.16543867 0.15523972 0.4127062 -3.7110789e-05 -0.014082496 -0.99990082 0
0.17518549 0.15547536 0.41270256 -2.7075583e-05 -0.014081645 -0.99990082 0
0.18594241 0.15763985 0.41267174 -4.4790897e-05 -0.014075816 -0.99990094 0
0.19476286 0.15385769 0.41272455 -4.7462723e-05 -0.014075245 -0.99990094 0
0.20494618 0.15271235 0.41321838 0.18966599 0.00087069947 -0.9818483 0
0.21130998 0.15312344 0.41675186 0.92374051 0.070340246 -0.37650475 0
-0.17479302 0.16557854 0.41428179 -0.47147045 0.076600611 -0.8785488 0
-0.16484258 0.16632622 0.41260076 -0.043830868 -0.006218682 -0.99901956 0
-0.15387718 0.16593471 0.41257098 -5.6345274e-05 -0.014077056 -0.99990088 0
-0.14527725 0.16685142 0.41255751 -6.6956396e-05 -0.014079442 -0.99990088 0
-0.13457012 0.16452153 0.41258964 -6.1630482e-05 -0.014080484 -0.99990088 0
-0.12472992 0.16654326 0.41256064 -4.6985147e-05 -0.014083355 -0.99990082 0
-0.11542804 0.16458093 0.41258785 -4.6985944e-05 -0.014083355 -0.99990082 0
-0.10469681 0.16399324 0.4125956 -4.6985948e-05 -0.014083355 -0.99990082 0
-0.096186236 0.16519803 0.41257825 -4.6985944e-05 -0.014083355 -0.99990082 0
-0.084774382 0.16421768 0.41259155 -4.6985948e-05 -0.014083355 -0.99990082 0
-0.076526091 0.16690865 0.41255319 -4.6985948e-05 -0.014083355 -0.99990082 0
-0.065640494 0.16508651 0.41257831 -4.6985941e-05 -0.014083355 -0.99990082 0
-0.052869581 0.16576447 0.41256821 -4.6985948e-05 -0.014083354 -0.99990082 0
-0.044607185 0.165566 0.41257063 -4.7094651e-05 -0.014083336 -0.99990082 0
-0.03497567 0.16513793 0.41257626 -4.7241512e-05 -0.014083331 -0.99990082 0
-0.024964632 0.16482602 0.4125801 -4.7244237e-05 -0.014083334 -0.99990082 0
-0.015352118 0.16445395 0.4125849 -4.7244244e-05 -0.014083337 -0.99990088 0
-0.0053742826 0.16400306 0.4125908 -4.7244241e-05 -0.014083332 -0.99990082 0
0.0028650118 0.16592084 0.41256341 -4.7173024e-05 -0.014083334 -0.99990082 0
0.01469174 0.16431804 0.41258544 -4.7087568e-05 -0.014083335 -0.99990082 0
0.025454257 0.16489682 0.41257671 -4.708756e-05 -0.014083336 -0.99990082 0
0.03616203 0.1654609 0.4125683 -4.7087571e-05 -0.014083333 -0.99990082 0
0.044981737 0.1670537 0.41254538 -4.7087571e-05 -0.014083333 -0.99990082 0
0.053695016 0.16494904 0.41257468 -4.7087571e-05 -0.014083333 -0.99990082 0
0.066530026 0.16561984 0.41256467 -4.7085898e-05 -0.014083337 -0.99990082 0
0.075248271 0.16543427 0.41256684 -4.7098467e-05 -0.014083343 -0.99990082 0
0.085369579 0.16547292 0.4125658 -4.7146536e-05 -0.014083351 -0.99990082 0
0.09540575 0.16602348 0.41255757 -4.7146539e-05 -0.014083348 -0.99990082 0
0.10617124 0.16543505 0.41256532 -4.7146536e-05 -0.014083351 -0.99990082 0
0.11472331 0.16501828 0.41257086 -4.7146539e-05 -0.01408335 -0.99990082 0
0.12520483 0.16716763 0.41254005 -4.7146539e-05 -0.01408335 -0.99990082 0
0.13452873 0.16509762 0.41256878 -4.7146536e-05 -0.014083351 -0.99990082 0
0.14428386 0.16454343 0.41257614 -4.7146539e-05 -0.014083348 -0.99990082 0
0.15350257 0.16422448 0.41258019 -4.7146299e-05 -0.014083349 -0.99990082 0
0.16468082 0.16644499 0.41254842 -3.9573541e-05 -0.014137903 -0.99989998 0
0.17442569 0.16463992 0.41257355 -2.7075583e-05 -0.014081648 -0.99990082 0
0.18506263 0.16517958 0.41256559 -4.0930528e-05 -0.014076184 -0.99990088 0
0.19502558 0.16483496 0.41257003 -4.7577068e-05 -0.014075283 -0.99990088 0
0.20383894 0.1647892 0.41297671 0.12695111 -0.0061507076 -0.99188989 0
0.21100943 0.16362552 0.41706079 0.9495225 0.072877973 -0.30511603 0
-0.17765588 0.17422518 0.41898209 -0.98030788 0.11703429 -0.1590579 0
-0.15130319 0.17625892 0.41242516 -4.7237743e-05 -0.01406272 -0.99990112 0
-0.14470705 0.17432688 0.41245204 -4.871772e-05 -0.014113082 -0.99990046 0
-0.13382666 0.17422704 0.41245291 -4.8224054e-05 -0.014064684 -0.99990112 0
-0.12475575 0.17365769 0.41246048 -4.6927933e-05 -0.014065891 -0.99990112 0
-0.11589864 0.17538835 0.41243577 -4.6917386e-05 -0.014062711 -0.99990112 0
-0.10585486 0.17543089 0.41243467 -4.6924983e-05 -0.014065006 -0.99990112 0
-0.092456102 0.17426953 0.41245037 -4.6931043e-05 -0.01406684 -0.999901 0
-0.08523839 0.17583725 0.41242799 -4.6924186e-05 -0.014064777 -0.99990112 0
-0.074900717 0.1745878 0.41244504 -4.692304e-05 -0.014064434 -0.99990106 0
-0.065566868 0.17480341 0.41244158 -4.6927882e-05 -0.014065892 -0.99990112 0
-0.054095965 0.17586309 0.41242614 -4.692304e-05 -0.014064434 -0.99990106 0
-0.043341428 0.17662109 0.41241503 -4.7054036e-05 -0.014062714 -0.99990106 0
-0.036004681 0.17579617 0.41242626 -4.7175552e-05 -0.014062709 -0.99990112 0
-0.024864901 0.17518553 0.41243434 -4.7182424e-05 -0.014064774 -0.99990112 0
-0.014651694 0.17371231 0.41245455 -4.7183188e-05 -0.014065002 -0.99990112 0
-0.006069527 0.17609198 0.41242066 -4.7175396e-05 -0.014062709 -0.99990112 0
0.0040087667 0.17612509 0.41241971 -4.7073238e-05 -0.014062711 -0.99990112 0
0.016626559 0.17454752 0.41244131 -4.7025835e-05 -0.014064305 -0.99990112 0
0.023852626 0.17447552 0.41244203 -4.7026591e-05 -0.01406478 -0.99990112 0
0.034405753 0.17510453 0.41243267 -4.7026315e-05 -0.014065014 -0.99990112 0
0.044390902 0.17515008 0.41243151 -4.7029258e-05 -0.014065895 -0.99990112 0
0.054716095 0.17636481 0.41241395 -4.7018657e-05 -0.014062723 -0.99990112 0
0.064746156 0.17494708 0.41243342 -4.7023248e-05 -0.014064097 -0.99990106 0
0.075259171 0.17476396 0.41243553 -4.7038309e-05 -0.014062724 -0.99990112 0
0.084995061 0.17495608 0.41243231 -4.7077614e-05 -0.014062724 -0.99990118 0
0.094634123 0.1763805 0.41241184 -4.7077614e-05 -0.014062724 -0.99990118 0
0.10473178 0.174734 0.41243455 -4.7077614e-05 -0.014062724 -0.99990112 0
0.1164457 0.17457277 0.41243625 -4.7077614e-05 -0.014062723 -0.99990112 0
0.12560046 0.17564003 0.41242081 -4.7077559e-05 -0.014062723 -0.99990112 0
0.13649234 0.17711152 0.41239959 -4.7077345e-05 -0.014062723 -0.99990112 0
0.14433189 0.17605506 0.4124141 -4.7077276e-05 -0.014062724 -0.99990118 0
0.15332998 0.17654598 0.41240677 -4.7077134e-05 -0.014062722 -0.99990112 0
0.16278765 0.17303824 0.41245565 -4.6887169e-05 -0.014062723 -0.99990112 0
0.17510511 0.17402379 0.41244125 -4.6608078e-05 -0.014062718 -0.99990112 0
0.18302155 0.17664804 0.41240397 -4.6608555e-05 -0.014062718 -0.99990112 0
-0.15176192 0.1837538 0.41231975 -4.7237743e-05 -0.01406272 -0.99990112 0
-0.14250816 0.18341136 0.41232413 -4.7232897e-05 -0.014062714 -0.99990112 0
-0.13542725 0.18501668 0.41230121 -4.7203284e-05 -0.014062714 -0.99990112 0
-0.12527016 0.18593529 0.4122878 -4.6917419e-05 -0.014062712 -0.99990112 0
-0.11636239 0.18497345 0.41230091 -4.6917423e-05 -0.014062715 -0.99990118 0
-0.10481464 0.18491422 0.41230121 -4.6917419e-05 -0.014062711 -0.99990112 0
-0.094269603 0.18382438 0.41231608 -4.6917419e-05 -0.014062711 -0.99990112 0
-0.086292915 0.18642221 0.41227916 -4.6917423e-05 -0.014062713 -0.99990118 0
-0.075653531 0.18512836 0.41229689 -4.6917383e-05 -0.014062714 -0.99990112 0
-0.065533735 0.18547826 0.41229147 -4.6917361e-05 -0.014062713 -0.99990112 0
-0.055299021 0.18605389 0.41228285 -4.6917357e-05 -0.014062715 -0.99990118 0
-0.04508825 0.1845075 0.41230419 -4.7003396e-05 -0.014062715 -0.99990112 0
-0.036938883 0.18390797 0.41231221 -4.7175552e-05 -0.01406271 -0.99990112 0
-0.023933863 0.18630113 0.41227797 -4.7175385e-05 -0.014062709 -0.99990112 0
-0.014512422 0.18357025 0.41231588 -4.7175337e-05 -0.014062715 -0.99990112 0
-0.0051795235 0.18477905 0.4122985 -4.7175337e-05 -0.014062715 -0.99990112 0
0.0055605988 0.18617566 0.41227823 -4.7057485e-05 -0.014062713 -0.99990112 0
0.014401147 0.18496345 0.41229498 -4.7022135e-05 -0.014062714 -0.99990112 0
0.02467631 0.1842742 0.41230413 -4.7022138e-05 -0.014062713 -0.99990118 0
0.036126748 0.18598902 0.41227949 -4.7022131e-05 -0.014062714 -0.99990106 0
0.045646489 0.18376864 0.41231024 -4.70204e-05 -0.014062718 -0.99990112 0
0.05421957 0.18452685 0.41229922 -4.7020152e-05 -0.014062721 -0.99990118 0
0.065595649 0.18393129 0.41230702 -4.7018948e-05 -0.014062724 -0.99990112 0
0.075546816 0.18550055 0.41228449 -4.7050402e-05 -0.014062723 -0.99990112 0
0.084737353 0.18436389 0.41230011 -4.7077614e-05 -0.014062724 -0.99990106 0
0.09613537 0.18362871 0.41230983 -4.7077501e-05 -0.014062723 -0.99990112 0
0.10623932 0.18529072 0.41228601 -4.7077323e-05 -0.014062724 -0.99990118 0
0.11298344 0.18542261 0.41228384 -4.707721e-05 -0.014062724 -0.99990118 0
0.12486383 0.18620318 0.41227227 -4.7077076e-05 -0.014062722 -0.99990112 0
0.13350043 0.18392909 0.41230386 -4.7077072e-05 -0.014062722 -0.99990112 0
0.14379117 0.18374726 0.41230592 -4.7077079e-05 -0.014062722 -0.99990118 0
0.15386494 0.1835928 0.41230765 -4.7077072e-05 -0.014062722 -0.99990112 0
0.16456802 0.18562689 0.41227847 -4.6821438e-05 -0.014062722 -0.99990112 0
0.1750228 0.18320109 0.41231215 -4.6603353e-05 -0.014062722 -0.99990112 0
0.18419293 0.18485557 0.41228846 -4.6608548e-05 -0.014062716 -0.99990112 0
-0.1518715 0.19471161 0.41492534 0.051351305 0.56435227 -0.82393539 0
-0.14546068 0.19640374 0.41492233 0.0033472257 0.83105344 -0.55618238 0
-0.13517657 0.19581757 0.4147622 0.0033178504 0.73558855 -0.67742038 0
-0.12520507 0.19511504 0.41417757 0.0016568521 0.44793469 -0.89406478 0
-0.11554866 0.19529565 0.41480953 0.0029212246 0.68541545 -0.72814643 0
-0.10472329 0.19654769 0.41612798 0.0034954734 0.88878357 -0.45831385 0
-0.09494514 0.19519837 0.41419688 0.0025259864 0.58783704 -0.8089754 0
-0.085981593 0.196117 0.41532761 0.0035344716 0.76916736 -0.63903761 0
-0.074442498 0.19585241 0.41452438 0.0032216632 0.67664659 -0.73630083 0
-0.066576377 0.19528605 0.41473091 0.0033237415 0.72315395 -0.69067883 0
-0.055431053 0.19550908 0.41492426 0.0029519943 0.66453463 -0.74725169 0
-0.046062823 0.19495086 0.41474873 0.0030105778 0.67191786 -0.74061954 0
-0.03436777 0.19507694 0.4147025 0.0027007763 0.71572822 -0.69837368 0
-0.024876269 0.19548771 0.4147498 0.0029234872 0.7320599 -0.681234 0
-0.013500461 0.19579047 0.41447943 0.0038043256 0.77946776 -0.62643087 0
-0.0055859378 0.19519089 0.41397554 0.0034465985 0.58449596 -0.81138933 0
0.0055968147 0.19460677 0.41435152 0.0021653157 0.61929196 -0.7851578 0
0.014573893 0.19462518 0.41373819 0.0010011706 0.52223969 -0.85279816 0
0.024380833 0.19524203 0.41468793 0.0015348446 0.73235369 -0.68092269 0
0.036213782 0.19524129 0.41468179 0.001917314 0.6936276 -0.72033119 0
0.044361163 0.19598305 0.41513187 0.0021129455 0.78876597 -0.61469001 0
0.054480489 0.19446923 0.41412747 0.0013708164 0.54785591 -0.83657151 0
0.063760154 0.19500175 0.41411856 0.0016112836 0.61875492 -0.78558242 0
0.074981831 0.19613655 0.41566789 0.002561708 0.87424392 -0.48548025 0
0.085305259 0.19558673 0.41534412 0.0015371057 0.70730805 -0.70690382 0
0.095193483 0.19420472 0.41397619 0.00066763518 0.50264543 -0.86449236 0
0.1036307 0.19437905 0.41439676 0.0021343746 0.72491962 -0.68883014 0
0.11539371 0.19441667 0.41378373 0.0013185653 0.53752071 -0.84324956 0
0.12359776 0.19565815 0.41502517 0.0013811571 0.81529504 -0.5790441 0
0.13447984 0.19594626 0.41566548 0.0022465193 0.88948506 -0.45695874 0
0.14460596 0.19515736 0.41509831 0.0017294399 0.69947118 -0.71465862 0
0.15496209 0.19544306 0.4149363 0.0014881241 0.80043364 -0.59941947 0
0.16554886 0.19526255 0.41490617 0.0012898438 0.75198293 -0.65918136 0
0.17522028 0.19531073 0.4146907 0.0024162431 0.83267653 -0.55375439 0
0.18372779 0.19523974 0.41492504 0.003091698 0.81919366 -0.57350868 0
-0.23174298 -0.236707 0.42998004 -0.17009333 -0.98541391 0.0052621565 0
-0.22314247 -0.23741582 0.42567086 -0.039983101 -0.9991861 0.0053357007 0
-0.20482212 -0.2375284 0.42476854 -0.0023387352 -0.99997926 0.0059998189 0
-0.1939386 -0.23755553 0.42405644 -0.0027446533 -0.9999609 0.0084024901 0
-0.18511994 -0.23757459 0.42515838 -0.0035715825 -0.99996704 0.0072913878 0
-0.17711242 -0.23760489 0.42483735 -0.0035580089 -0.99995917 0.0083061662 0
-0.16487925 -0.23764491 0.4252173 -0.00354875 -0.99997044 0.0068312571 0
-0.15492593 -0.23769078 0.42397684 -0.0035513085 -0.99996376 0.0077312901 0
-0.14472784 -0.2377083 0.42655167 -0.0035531963 -0.99997079 0.006773157 0
-0.13550664 -0.23775366 0.42479011 -0.0035572911 -0.99996835 0.0071186451 0
-0.1271342 -0.23778151 0.4252069 -0.0035572911 -0.99996835 0.0071186461 0
-0.1146917 -0.23782749 0.42457354 -0.0035630227 -0.99996477 0.007602327 0
-0.10464873 -0.23786338 0.4247036 -0.0035300434 -0.99996841 0.0071186461 0
-0.095265314 -0.23789397 0.42492133 -0.0034613509 -0.99997354 0.006394295 0
-0.083479628 -0.23792762 0.42558241 -0.0034457895 -0.99997383 0.0063655809 0
-0.076953873 -0.23796701 0.42365128 -0.003455966 -0.99996132 0.008087242 0
-0.064748339 -0.23799618 0.42534074 -0.0034520396 -0.99996644 0.0074227438 0
-0.057008646 -0.23801599 0.42646366 -0.0034495401 -0.99996954 0.0069998796 0
-0.045654107 -0.23808016 0.42321348 -0.003425173 -0.99996585 0.0075239297 0
-0.034859303 -0.23810942 0.42390656 -0.0034349614 -0.99996495 0.0076311557 0
-0.025026126 -0.23814103 0.42427549 -0.0034307968 -0.99996358 0.0078115198 0
-0.01587934 -0.23817606 0.42368984 -0.0034297714 -0.99995607 0.0087248264 0
-0.0049960637 -0.23821039 0.42430118 -0.0034202535 -0.99996769 0.0072722887 0
0.0068002669 -0.23825411 0.4237031 -0.0032942253 -0.99996597 0.0075644054 0
0.014543605 -0.23827735 0.42391807 -0.0032704507 -0.99996465 0.0077538355 0
0.025067713 -0.23830768 0.42449003 -0.003253819 -0.99996632 0.0075267535 0
0.034534171 -0.23833567 0.42484611 -0.0032512944 -0.99996686 0.0074678352 0
0.04527545 -0.23837753 0.42393222 -0.0032456997 -0.99996489 0.0077310451 0
0.054469243 -0.23840269 0.42469782 -0.0032417816 -0.99996936 0.0071276715 0
0.064053118 -0.23842278 0.42590737 -0.0032363499 -0.99997306 0.0065978728 0
0.075265117 -0.23846425 0.42508391 -0.0032305333 -0.99996608 0.0075739543 0
0.085937746 -0.23850399 0.42468321 -0.0032282311 -0.99996662 0.0075028301 0
0.095419273 -0.23852089 0.4264805 -0.0032365124 -0.99998069 0.0053028124 0
0.10556243 -0.2385605 0.42539695 -0.0032093176 -0.99997497 0.0062931683 0
0.11615773 -0.2385973 0.42503452 -0.0031397699 -0.99997085 0.0069548292 0
0.12507744 -0.23863232 0.42429179 -0.0031247248 -0.99996138 0.0082190232 0
0.13408057 -0.23865339 0.42521486 -0.0031374807 -0.99996954 0.0071472074 0
0.1442844 -0.23868412 0.42508763 -0.0031407869 -0.99997151 0.0068693273 0
0.15558133 -0.23871759 0.42566064 -0.0031486389 -0.9999758 0.0062093604 0
0.16476676 -0.23874992 0.42546865 -0.0031747797 -0.99997193 0.0067865676 0
0.1750855 -0.23877881 0.42503899 -0.0031502321 -0.99997658 0.0060753818 0
0.1858498 -0.23881383 0.42541271 -0.003134809 -0.99997252 0.0067100502 0
0.19550176 -0.23884949 0.42510709 -0.0038028455 -0.99996167 0.0078807101 0
0.20449933 -0.23889454 0.42426252 -0.0051523289 -0.99997103 0.0056055579 0
0.21608675 -0.23894019 0.42481422 -0.0032085283 -0.99997026 0.0070203342 0
0.22351155 -0.23895034 0.42615804 -0.0019437752 -0.99997622 0.0066180816 0
0.23418492 -0.23850049 0.42990428 0.16355719 -0.98652023 0.0051858881 0
-0.23815766 -0.22284743 0.42836314 -0.99999434 0.0033627371 5.8828764e-06 0
0.24208452 -0.22409356 0.42749184 0.99999434 -0.0033641609 -6.7330507e-06 0
-0.23797478 -0.21485561 0.42402849 -0.99724948 0.064495161 0.036520381 0
0.24201804 -0.21500273 0.42414203 0.99971294 0.019636011 0.013728675 0
-0.2362642 -0.20513666 0.42584193 -0.97545636 0.19521473 0.10186315 0
0.24157327 -0.20641124 0.42585772 0.99769789 0.063181527 0.024637552 0
-0.23343226 -0.19541842 0.42562145 -0.93900305 0.34350505 -0.016657546 0
0.24040554 -0.19312963 0.42374584 0.99614394 0.087560676 -0.0055123563 0
-0.23073681 -0.18460071 0.42522448 -0.9932425 0.11578554 -0.0079456372 0
0.23978783 -0.18549165 0.42540982 0.99736667 0.07239528 -0.0043245703 0
0.24005342 -0.18911469 0.42604464 0.99736434 0.072391897 -0.0048781284 0
-0.23017411 -0.17969926 0.42661676 -0.99327034 0.11577556 -0.0031731441 0
-0.22940329 -0.1731095 0.42599058 -0.99324894 0.11589795 -0.0049284319 0
0.23904248 -0.17523482 0.42480707 0.99736911 0.072376624 -0.0040760217 0
-0.22841607 -0.16474688 0.42434928 -0.99325651 0.11574074 -0.0067578936 0
0.23825805 -0.16444536 0.42500564 0.99737412 0.072308064 -0.0040730559 0
-0.22735538 -0.15557507 0.42553931 -0.99326307 0.11577258 -0.0050154855 0
0.23748514 -0.15382078 0.42396042 0.99737155 0.072311789 -0.0045837038 0
-0.22607313 -0.14463061 0.42454052 -0.99325812 0.11577851 -0.0057983939 0
0.23687445 -0.14540485 0.42402211 0.99737412 0.072308071 -0.0040730559 0
-0.22502954 -0.13569246 0.4239797 -0.9932512 0.11583931 -0.0057835146 0
0.23613879 -0.13513976 0.42650494 0.99737471 0.072352238 -0.0029727342 0
-0.22393894 -0.12628467 0.42564628 -0.99325985 0.11581331 -0.0047156392 0
0.23537508 -0.12466221 0.42556617 0.99737453 0.072340839 -0.0032986649 0
-0.22247195 -0.11370499 0.42528558 -0.99325627 0.11582439 -0.0051693125 0
0.23465809 -0.11482675 0.42450097 0.99736959 0.072376482 -0.0039473874 0
-0.22144122 -0.10479518 0.42718816 -0.99326211 0.1158058 -0.0044071414 0
0.23389724 -0.10432212 0.42510068 0.99737233 0.072364189 -0.0034524472 0
-0.22057937 -0.097470269 0.42542768 -0.99325985 0.11581331 -0.0047156392 0
-0.21978863 -0.09085536 0.42208987 -0.99324691 0.11585082 -0.0062581236 0
0.23324868 -0.095287912 0.42662734 0.99737233 0.072364189 -0.0034524472 0
-0.21902169 -0.085107356 0.42425463 -0.98958415 0.14378008 -0.0071014296 0
0.23238996 -0.083303042 0.4249123 0.9975549 0.069792867 -0.0036501279 0
-0.21749191 -0.074681692 0.42607749 -0.98917347 0.14656854 -0.0073169242 0
0.23187216 -0.076045543 0.42237705 0.99755371 0.06979619 -0.0038789201 0
-0.21613356 -0.065563165 0.42517957 -0.98917466 0.14656675 -0.0071854503 0
0.23110202 -0.064875647 0.42532995 0.99755543 0.069790959 -0.0035193891 0
-0.21475852 -0.056288559 0.42504182 -0.98917466 0.14656673 -0.0071854503 0
0.23040494 -0.054945305 0.42459223 0.9975549 0.069782943 -0.0038279851 0
-0.21327339 -0.046297055 0.42448184 -0.98920041 0.14645314 -0.005836782 0
0.2296941 -0.044706117 0.42608881 0.99755764 0.069772743 -0.0032415865 0
-0.21163824 -0.035216566 0.42517292 -0.98920828 0.14641577 -0.0054276767 0
0.22897933 -0.034559499 0.42451298 0.99756622 0.069677949 -0.0025749172 0
-0.21049687 -0.027574711 0.4235878 -0.98921847 0.14635578 -0.0051723393 0
-0.20971738 -0.022235999 0.42492619 -0.98922157 0.14634971 -0.0047340868 0
0.22824454 -0.024061957 0.42416143 0.99756408 0.069698229 -0.0028303838 0
-0.20858943 -0.014593372 0.42561108 -0.98922539 0.14634612 -0.0040046093 0
0.22757989 -0.014492654 0.42504701 0.99756736 0.069668546 -0.0024164044 0
-0.20702755 -0.0040226779 0.42619637 -0.98923171 0.146312 -0.0036716789 0
0.22684868 -0.0040256074 0.4251605 0.9975698 0.069645017 -0.0020201225 0
-0.20573756 0.004673277 0.42522299 -0.98923421 0.14628224 -0.0041498076 0
0.22609492 0.0067482353 0.42458034 0.99757391 0.069589511 -0.0018608456 0
-0.20427261 0.014550316 0.42392686 -0.98926139 0.14613053 -0.0027808459 0
0.22555692 0.014493018 0.42575592 0.99756855 0.069656909 -0.0021807065 0
-0.20267092 0.025423646 0.42544228 -0.98923999 0.14624764 -0.0039904742 0
0.22479445 0.025217339 0.42372558 0.99667138 0.081507199 -0.0016896703 0
-0.20112041 0.035561603 0.42479286 -0.98790634 0.15503007 -0.0025850923 0
0.22395937 0.034385022 0.4246991 0.9944337 0.10534563 -0.0019842689 0
-0.2003836 0.040215679 0.42241091 -0.98790932 0.1550073 -0.0028241167 0
-0.19933952 0.046916347 0.42544651 -0.98790044 0.15507555 -0.0021070431 0
0.22269884 0.046292327 0.4252454 0.99442846 0.10540246 -0.001517244 0
-0.1981702 0.054349612 0.424088 -0.98790175 0.15506299 -0.0023731717 0
0.22171625 0.055540957 0.42398453 0.99443054 0.10538022 -0.0016917761 0
-0.19643153 0.065453462 0.42620119 -0.98788542 0.15517892 -0.001371482 0
0.22070833 0.065044731 0.42339969 0.99442786 0.10540828 -0.0015075295 0
-0.19491574 0.075075611 0.42391959 -0.98789585 0.15510571 -0.0019776714 0
0.21954723 0.076012038 0.42453617 0.99442488 0.10544036 -0.0011922034 0
-0.19313781 0.086411096 0.4252964 -0.9878819 0.15520312 -0.0011821506 0
0.21864274 0.084557332 0.42613977 0.99442077 0.10548405 -0.00071935996 0
-0.19198908 0.09373153 0.4264465 -0.9878816 0.15520622 -0.0010002725 0
0.21768981 0.093534365 0.42533705 0.99442089 0.10548224 -0.00082417688 0
-0.19060582 0.10252441 0.42486981 -0.9878819 0.15520325 -0.0011741932 0
-0.18978167 0.10775992 0.42352396 -0.98788196 0.15520203 -0.0012458077 0
0.21660489 0.10376604 0.42567098 0.99442089 0.10548224 -0.00082417688 0
-0.18874142 0.11426114 0.42502642 -0.98624468 0.16528854 -0.0010747289 0
0.21543966 0.11497775 0.42461994 0.99548793 0.094885185 -0.0006798876 0
-0.18660888 0.12560308 0.42389125 -0.9807362 0.19533183 -0.0013913625 0
0.21453217 0.12508467 0.42477053 0.99628991 0.086057961 -0.00056541333 0
-0.18478532 0.13476203 0.42436695 -0.9807362 0.19533183 -0.0013913625 0
0.21368736 0.13486625 0.42459771 0.99628866 0.086073041 -0.00049150683 0
-0.18264391 0.14551473 0.42538041 -0.98071539 0.19543956 -0.00084727642 0
0.2128146 0.14498945 0.42612135 0.99632251 0.085674524 -0.001132967 0
-0.18013455 0.1581499 0.42326838 -0.98109603 0.19346914 -0.0044955723 0
-0.17998955 0.15881951 0.42194581 -0.98071539 0.19543961 -0.00084727665 0
0.21188655 0.15575515 0.42421359 0.99638176 0.084955893 -0.0024244757 0
-0.17881268 0.16494416 0.42488313 -0.98145974 0.19149536 -0.0081437919 0
0.21117273 0.1643512 0.42602253 0.99782902 0.065789469 -0.0029959532 0
-0.17779298 0.17512949 0.42477784 -0.9983651 0.031407047 -0.047757566 0
0.21090987 0.17539617 0.42480737 0.99901426 -0.00066905044 -0.044385836 0
-0.17768884 0.18456514 0.42699313 -0.98692739 0.091443837 -0.13271128 0
0.21071693 0.1847256 0.42721447 0.98107141 0.11045807 -0.15905331 0
-0.17501618 0.19349985 0.42812815 -0.85213864 0.47376516 -0.2222753 0
-0.16426823 0.19867508 0.42549145 -0.1773075 0.95455664 -0.23954879 0
-0.15474372 0.19929743 0.42617908 0.046655413 0.99218571 -0.11571849 0
-0.14420356 0.19846417 0.42607084 0.042773042 0.99828738 -0.039909311 0
-0.1346335 0.19829504 0.42487928 0.0020771492 0.99997479 -0.0067864265 0
-0.12537624 0.19826981 0.42483547 0.0035582103 0.99996495 -0.0075753606 0
-0.11475134 0.19823958 0.42604971 0.0035456575 0.99997187 -0.0066057411 0
-0.10577836 0.19820681 0.42579201 0.003528391 0.99997753 -0.0056967498 0
-0.097408168 0.19816995 0.42504647 0.0035426419 0.99996722 -0.0072798175 0
-0.084606811 0.19811825 0.42435026 0.0035630153 0.99996471 -0.0076023513 0
-0.075346708 0.19809504 0.42527497 0.0035598883 0.99996668 -0.0073385062 0
-0.064002573 0.19806783 0.42740801 0.0035357799 0.99997967 -0.0053046835 0
-0.053080622 0.19800912 0.42460307 0.0035630148 0.99996477 -0.0076023513 0
-0.044941224 0.19798101 0.42487764 0.0035506624 0.99996579 -0.0074641458 0
-0.035664968 0.19795163 0.42509133 0.003540965 0.99996936 -0.0069807307 0
-0.024536788 0.19790761 0.42446366 0.0035743013 0.9999609 -0.008086971 0
-0.014214353 0.1978672 0.42402971 0.0035882171 0.99996352 -0.0077499566 0
-0.0040351385 0.19783805 0.42511973 0.003603338 0.99996871 -0.0070342193 0
0.0027488805 0.19782741 0.42728704 0.0034343775 0.99997967 -0.0053646397 0
0.015377272 0.19777879 0.4256649 0.0031825828 0.99997383 -0.0064988062 0
0.025085121 0.1977455 0.42532918 0.0031875952 0.99997044 -0.0069878199 0
0.034506034 0.19771548 0.42557687 0.0031902995 0.99997264 -0.0066739121 0
0.043718059 0.19767238 0.42367327 0.0032071085 0.99995917 -0.0084456727 0
0.056099597 0.19763894 0.42449391 0.0032236204 0.99996692 -0.0074601551 0
0.065597117 0.19762126 0.42587146 0.0032226169 0.9999761 -0.0061137308 0
0.076300055 0.19757499 0.42470589 0.0031682267 0.99996167 -0.0081625162 0
0.085302122 0.19753791 0.42338315 0.0031130528 0.99995285 -0.0091965292 0
0.094566405 0.19752483 0.4256916 0.0031371324 0.99996936 -0.0071734525 0
0.10536889 0.19749248 0.42585686 0.0031469387 0.99997491 -0.006349226 0
0.11544199 0.19745456 0.42491132 0.0031451557 0.99997389 -0.0064990856 0
0.1226174 0.19743533 0.42509186 0.0031273235 0.9999631 -0.0079976739 0
0.13504221 0.19740078 0.42605621 0.0031655051 0.99997818 -0.0058079376 0
0.14637113 0.19735909 0.42524022 0.0031453685 0.99996608 -0.0076114591 0
0.1534396 0.19733648 0.42540994 0.003127174 0.99996805 -0.0073588155 0
0.16474925 0.19729915 0.42502135 0.0041287751 0.99996263 -0.0075945659 0
0.1755067 0.19730183 0.4254587 -0.029492356 0.99895459 -0.034928106 0
0.18549003 0.19776429 0.42397287 -0.091275565 0.99210066 -0.086053565 0
0.19459906 0.19776028 0.4249694 0.14232652 0.96565658 -0.21737203 0
0.20322263 0.19676074 0.42708507 0.1836938 0.95334572 -0.23955911 0
-0.16263749 0.20004901 0.42975938 -0.17730749 0.9545567 -0.23954876 0
-0.23536824 -0.2346352 0.43483999 -0.60554093 -0.79579359 0.0057120486 0
-0.22554211 -0.23734307 0.4338468 -0.038506359 -0.99923998 0.0060661286 0
-0.21496089 -0.23742764 0.43455473 -0.0036598889 -0.99996763 0.0071612294 0
-0.20412777 -0.23746243 0.43520582 -0.0034856715 -0.99996936 0.0070080776 0
-0.19584113 -0.23747967 0.43646792 -0.0026125314 -0.99997807 0.006089157 0
-0.18425061 -0.23751923 0.43567282 -0.0036332405 -0.99998003 0.0051702 0
-0.17646325 -0.23754533 0.43609491 -0.0036332405 -0.99998003 0.0051702 0
-0.16383357 -0.23759279 0.43579164 -0.0036332407 -0.99998009 0.0051702 0
-0.15508561 -0.23763211 0.43426499 -0.0035913922 -0.99998111 0.0049822051 0
-0.1447494 -0.23766698 0.43474498 -0.0035734572 -0.99998152 0.0049016355 0
-0.1343988 -0.23770396 0.43476012 -0.0035547756 -0.99998212 0.0048177107 0
-0.12594184 -0.23772621 0.43639213 -0.0035476414 -0.99998224 0.0047856648 0
-0.11553797 -0.23777257 0.43436432 -0.0035286197 -0.99998277 0.0047002132 0
-0.10452469 -0.23780803 0.4350715 -0.0035047673 -0.99998283 0.0047002137 0
-0.093381278 -0.23784836 0.43476138 -0.0034782635 -0.99998289 0.0047002141 0
-0.085087731 -0.2378784 0.43450609 -0.0034782633 -0.99998295 0.0047002141 0
-0.074310847 -0.23791212 0.43530858 -0.0034782633 -0.99998289 0.0047002141 0
-0.066303886 -0.2379446 0.43429556 -0.003462645 -0.99998331 0.0046153786 0
-0.056255229 -0.23797479 0.43530849 -0.0034645968 -0.99998331 0.0046259831 0
-0.044249021 -0.23802008 0.43447241 -0.0034539669 -0.99998355 0.0045682476 0
-0.035882879 -0.23804693 0.43492714 -0.003441819 -0.99998397 0.0045022643 0
-0.026807867 -0.23807819 0.4349083 -0.0034345302 -0.9999842 0.0044626743 0
-0.014721332 -0.2381268 0.43332011 -0.00343453 -0.99998409 0.0044626738 0
-0.0060465061 -0.23814614 0.43565613 -0.0034345298 -0.99998409 0.0044626738 0
0.0038289155 -0.23818313 0.43488556 -0.0032755577 -0.99998468 0.0044626757 0
0.016805643 -0.23822185 0.43567035 -0.0032490622 -0.99998474 0.0044626766 0
0.02386423 -0.2382541 0.43357706 -0.0032490625 -0.99998474 0.0044626761 0
0.03440975 -0.23828201 0.43498987 -0.0032423013 -0.99998462 0.0044993968 0
0.045769826 -0.23832205 0.43428293 -0.003239671 -0.9999845 0.0045136767 0
0.054916333 -0.23835525 0.43349463 -0.003235539 -0.99998444 0.0045361165 0
0.064410463 -0.23838472 0.43376619 -0.0032336949 -0.99998438 0.004546131 0
0.07561636 -0.23841284 0.43549696 -0.003215255 -0.99998409 0.0046462766 0
0.084186599 -0.23843773 0.43607658 -0.003215255 -0.99998403 0.0046462761 0
0.093546756 -0.23847024 0.43555689 -0.003215255 -0.99998403 0.0046462771 0
0.10605823 -0.23851284 0.43503335 -0.0031967836 -0.99998409 0.0046462757 0
0.11434558 -0.23854168 0.43449542 -0.0031672297 -0.9999842 0.0046462757 0
0.1248135 -0.23856987 0.43556625 -0.0031672302 -0.9999842 0.0046462766 0
0.13591892 -0.2385996 0.43665838 -0.0031088858 -0.99998307 0.0049083279 0
0.14403296 -0.2386436 0.43273091 -0.0031438919 -0.99998379 0.0047510969 0
0.15537125 -0.23866645 0.43528333 -0.0030972178 -0.99998295 0.0049607395 0
0.16655613 -0.23870409 0.43465826 -0.0030505431 -0.99998194 0.0051703812 0
0.17545719 -0.23872861 0.43517011 -0.0030505431 -0.99998194 0.0051703816 0
0.1837862 -0.23875819 0.43436083 -0.0030505431 -0.999982 0.0051703807 0
0.19491464 -0.23880038 0.43307871 -0.0040946971 -0.99997818 0.0051704207 0
0.20465837 -0.23883343 0.43477562 -0.0032526755 -0.99997038 0.0069815256 0
0.21450809 -0.23885638 0.43585664 -0.0030466546 -0.99996972 0.0071626306 0
0.22501698 -0.23890096 0.4340947 -0.0026957393 -0.99997193 0.0069893654 0
0.23507251 -0.238261 0.43512952 0.26304108 -0.96476674 0.0058781486 0
0.24153772 -0.23348339 0.43603 0.97360986 -0.22821327 0.0016281351 0
-0.23815791 -0.22454914 0.43607792 -0.9998126 0.017433116 0.0084131313 0
0.24205931 -0.22391516 0.43470952 0.99998951 0.0027721385 0.0036474315 0
-0.23737538 -0.21529444 0.43303841 -0.98482925 0.1498414 0.087515019 0
0.2417625 -0.21556474 0.43505526 0.99842781 0.047221966 0.030200763 0
-0.23575518 -0.206541 0.43305364 -0.97652882 0.18577501 0.10899162 0
0.24127041 -0.20603232 0.43498221 0.99811339 0.051812567 0.032941695 0
-0.23289905 -0.19417137 0.43583536 -0.96458864 0.25832069 0.053284265 0
0.24053963 -0.19416413 0.43524316 0.99657834 0.082582369 0.0034394583 0
-0.23109862 -0.18715677 0.43546918 -0.98882973 0.1489263 -0.006062781 0
0.23959082 -0.18233414 0.43504918 0.9973591 0.072557136 -0.0031982893 0
0.24008873 -0.18933421 0.43150699 0.99735916 0.072557136 -0.0031982895 0
-0.23009726 -0.17866445 0.43596691 -0.9932276 0.11609069 -0.0046891673 0
-0.22951049 -0.17365389 0.43572816 -0.99322754 0.11609068 -0.0046891677 0
0.2390532 -0.17497328 0.43438116 0.99735916 0.072557144 -0.0031982898 0
-0.22845104 -0.16459741 0.43553951 -0.9932276 0.11609066 -0.0046891668 0
0.23832241 -0.16490075 0.43499702 0.9973591 0.072557129 -0.0031982888 0
-0.22726421 -0.15446118 0.43504295 -0.9932369 0.11602317 -0.0043643056 0
0.23757179 -0.15457805 0.43498448 0.99736351 0.072506882 -0.0029586502 0
-0.2260108 -0.14377554 0.43361551 -0.99325836 0.11586562 -0.0036062945 0
0.236801 -0.14400417 0.43429789 0.99736971 0.072435364 -0.0026176244 0
-0.22478856 -0.13321482 0.43626115 -0.99324924 0.11593319 -0.0039311568 0
0.23625754 -0.13645034 0.43629825 0.99736631 0.072474904 -0.0028061522 0
-0.22369112 -0.12386285 0.43448961 -0.99326509 0.11581498 -0.0033626473 0
0.23550613 -0.12614189 0.43489894 0.99737722 0.072346039 -0.0021918023 0
-0.22250049 -0.11362009 0.43555984 -0.99327034 0.11577554 -0.0031731441 0
0.234713 -0.11519395 0.435296 0.99737841 0.072330959 -0.0021199102 0
-0.22128566 -0.10322627 0.43451935 -0.99327034 0.11577554 -0.0031731441 0
0.23400895 -0.10545743 0.43627554 0.99737841 0.072330959 -0.0021199102 0
-0.22054155 -0.096804492 0.43589637 -0.99327034 0.11577554 -0.0031731441 0
0.23325507 -0.095103122 0.43489122 0.99737841 0.072330959 -0.0021199102 0
-0.21900749 -0.084639527 0.43582317 -0.9899438 0.14140822 -0.0038874939 0
0.23248595 -0.084330246 0.4340663 0.99756104 0.069769479 -0.0020485779 0
-0.21735415 -0.073455565 0.43531501 -0.98919898 0.14652345 -0.0040300521 0
0.23186542 -0.075446703 0.43445253 0.99756104 0.069769494 -0.0020485781 0
-0.21622606 -0.065852873 0.43483141 -0.98919892 0.14652342 -0.0040300521 0
0.23111828 -0.064758688 0.4346329 0.99756104 0.069769487 -0.0020485781 0
-0.21445484 -0.05386151 0.43605259 -0.98919898 0.14652345 -0.0040300521 0
0.23034379 -0.053679891 0.43481883 0.9975611 0.069769494 -0.0020485783 0
-0.21297993 -0.043947462 0.4344776 -0.98919892 0.14652342 -0.0040300521 0
0.22971246 -0.044647392 0.4350085 0.99756104 0.069769494 -0.0020485783 0
0.23005253 -0.049395386 0.43890655 0.9975611 0.069769494 -0.0020485783 0
-0.21151535 -0.034067422 0.43420807 -0.98919898 0.14652342 -0.0040300516 0
0.22902408 -0.034802448 0.43510383 0.99756032 0.069782741 -0.0019570598 0
-0.21037321 -0.026345361 0.43462124 -0.98919898 0.14652342 -0.0040300516 0
-0.20979942 -0.022466006 0.43521729 -0.98918372 0.14664784 -0.0031596452 0
0.22837131 -0.025472259 0.43548852 0.99755645 0.069849037 -0.0014994693 0
-0.20860286 -0.014383956 0.43558609 -0.98917174 0.14674108 -0.0025068382 0
0.2275653 -0.013961089 0.43588817 0.99755245 0.069914117 -0.0010501983 0
-0.2073876 -0.0062173186 0.4343155 -0.98918056 0.14667273 -0.0029855636 0
0.22696692 -0.005446733 0.4339765 0.9975549 0.069874771 -0.0013218164 0
-0.20554571 0.0062009403 0.43508166 -0.98916048 0.14682652 -0.0019084309 0
0.2262661 0.0045682429 0.43511316 0.99755317 0.06990207 -0.0011333968 0
-0.2043177 0.014467254 0.43413991 -0.98915726 0.1468498 -0.0017452287 0
0.22550459 0.015434198 0.43511644 0.99755114 0.069935203 -0.0009046013 0
-0.20279975 0.024699753 0.4350307 -0.98915088 0.14689636 -0.0014188244 0
0.22481872 0.025215251 0.43535125 0.997549 0.069968335 -0.00067580579 0
-0.20146529 0.033487935 0.43472254 -0.98785466 0.15537381 -0.0015007614 0
0.22408798 0.03330598 0.43541604 0.99440819 0.10560007 -0.0010199568 0
-0.20011698 0.042056721 0.43425497 -0.98786348 0.1553198 -0.001224805 0
-0.19948585 0.046086904 0.43615356 -0.9878546 0.15537381 -0.0015007614 0
0.22291724 0.044341091 0.43650356 0.99440813 0.10560005 -0.0010199567 0
-0.19808519 0.054976672 0.43383041 -0.98786789 0.15529281 -0.0010868267 0
0.22184889 0.054387052 0.43449974 0.99441475 0.10554001 -0.00071699725 0
-0.19662011 0.064316615 0.43666974 -0.98786527 0.15530901 -0.0011696137 0
0.2206371 0.065807752 0.43480697 0.9944157 0.10553191 -0.00067612174 0
-0.19504884 0.074301079 0.43463501 -0.9878754 0.15524651 -0.00085029256 0
0.21956605 0.075904049 0.43510664 0.99441642 0.10552571 -0.00064486399 0
0.22009623 0.070911191 0.43617129 0.99441737 0.10551642 -0.00059797743 0
-0.19340996 0.084733352 0.43541178 -0.987881 0.15521179 -0.00067289209 0
0.2185584 0.085391164 0.43284345 0.99442041 0.10548852 -0.00045731763 0
-0.19197688 0.093853362 0.43515426 -0.98788095 0.15521179 -0.00067289214 0
0.21748854 0.095485635 0.43491185 0.99442047 0.10548855 -0.00045731766 0
-0.19071642 0.1018763 0.43523711 -0.987881 0.15521179 -0.00067289203 0
-0.1896452 0.10870086 0.43677425 -0.987881 0.15521179 -0.00067289203 0
0.21648532 0.10494882 0.4362863 0.99442047 0.10548854 -0.00045731766 0
-0.18866958 0.11472327 0.43472773 -0.98590416 0.16730946 -0.00072533451 0
0.21536508 0.11573132 0.43287665 0.99551666 0.094585299 -0.00041005234 0
-0.18643898 0.12651946 0.43621042 -0.98084414 0.19478317 -0.0020633722 0
0.21454577 0.12498596 0.43558785 0.99630147 0.08592429 -0.00068404694 0
-0.18489251 0.1343337 0.43683872 -0.98117012 0.19307464 -0.0052252281 0
0.21367826 0.13507296 0.43542039 0.9963873 0.084886707 -0.0025487917 0
-0.18285808 0.14464615 0.43482268 -0.98129398 0.19240674 -0.0064600199 0
0.21268702 0.14666291 0.43342462 0.99644214 0.084194787 -0.0037919481 0
-0.18068664 0.15575169 0.43456876 -0.9814598 0.19149536 -0.008143791 0
-0.17992179 0.15964763 0.43400231 -0.98145968 0.19149533 -0.008143791 0
0.21204101 0.15437576 0.43492338 0.99644208 0.084194787 -0.0037919478 0
-0.17919615 0.16337809 0.43427169 -0.98145968 0.19149534 -0.008143791 0
0.21110679 0.16546683 0.43473008 0.99774706 0.067018382 -0.0030491021 0
-0.17791101 0.17539741 0.43575406 -0.9999842 -0.0056039519 0.00039289758 0
0.21100651 0.17555359 0.43596607 0.99898016 -0.045115054 0.001801546 0
-0.17817625 0.18456139 0.43479532 -0.9996345 -0.02293789 -0.014305514 0
0.21134527 0.18477248 0.43615854 0.99949962 -0.019253716 -0.02509558 0
-0.17684297 0.19521527 0.43439969 -0.88000685 0.43454474 -0.19172579 0
-0.16559738 0.19973497 0.43069881 -0.17730749 0.9545567 -0.23954876 0
-0.15067801 0.19993132 0.43773827 0.097897157 0.99146974 -0.086045973 0
-0.14400421 0.19892475 0.43373275 0.097897172 0.99146974 -0.08604598 0
-0.13589334 0.19836868 0.43413526 0.010073326 0.99987072 -0.012530895 0
-0.12585506 0.19832915 0.43532333 0.0036333208 0.99998009 -0.0051704012 0
-0.11527935 0.19829316 0.43580016 0.0036333203 0.99997997 -0.0051704007 0
-0.10425347 0.19824576 0.43438128 0.0036333206 0.99998003 -0.0051704017 0
-0.096619904 0.19821385 0.43354663 0.0036071432 0.99998075 -0.0050528091 0
-0.085101135 0.19817661 0.43436724 0.0035635133 0.99998188 -0.0048568225 0
-0.072540745 0.19812557 0.43302187 0.0035416987 0.99998242 -0.0047588279 0
-0.065435179 0.19811019 0.43508229 0.0035351543 0.9999826 -0.0047294302 0
-0.055246051 0.19807632 0.43553051 0.0035286092 0.99998266 -0.0047000311 0
-0.044436708 0.19803643 0.43515748 0.0035336695 0.99998277 -0.0047000316 0
-0.0357081 0.19800207 0.43443009 0.0035471616 0.99998266 -0.0047000316 0
-0.024981048 0.19796418 0.43448639 0.0035643319 0.99998283 -0.0046553835 0
-0.015932646 0.19792856 0.4338198 0.0035790489 0.99998289 -0.004617115 0
-0.0069997692 0.19789642 0.43385872 0.0036463663 0.99998349 -0.0044420687 0
0.0052354373 0.1978572 0.43482757 0.0033451021 0.99998462 -0.0044098115 0
0.01477313 0.19782861 0.43518594 0.0031359931 0.9999854 -0.0044098035 0
0.026172599 0.19779675 0.43608055 0.0031478754 0.99998504 -0.0044582966 0
0.035248253 0.19776088 0.43445417 0.0031634141 0.99998474 -0.0045217117 0
0.04350511 0.19773234 0.4339644 0.0031850084 0.99998432 -0.0046098395 0
0.054718118 0.19770582 0.43594006 0.0031954052 0.99998403 -0.0046522715 0
0.066517346 0.19766904 0.43615723 0.0032072882 0.99998379 -0.0047007655 0
0.074653134 0.19763595 0.43465897 0.0031924725 0.99998385 -0.0047007655 0
0.084167659 0.19760953 0.43546692 0.0031665452 0.99998397 -0.0047007655 0
0.096225403 0.19756584 0.43429574 0.0031665447 0.99998391 -0.0047007655 0
0.10576056 0.19753931 0.43504801 0.0031441478 0.99998349 -0.0048013609 0
0.11420259 0.19751275 0.43503129 0.0031280376 0.99998325 -0.0048737191 0
0.1260343 0.19747783 0.43538079 0.0030881546 0.99998242 -0.0050528492 0
0.1348469 0.19745165 0.43556094 0.0030620245 0.999982 -0.0051702098 0
0.14387272 0.19742753 0.43623927 0.0030620245 0.99998194 -0.0051702103 0
0.15545867 0.19738796 0.43545014 0.0030620242 0.999982 -0.0051702098 0
0.16291255 0.19735716 0.43429106 0.0036467658 0.99997997 -0.0051701996 0
0.17516974 0.19780463 0.43473351 -0.06501215 0.99582386 -0.064095914 0
0.18467139 0.19869278 0.43554538 -0.091275558 0.9921006 -0.086053558 0
0.1956861 0.19944595 0.43335763 0.011980136 0.98930877 -0.14534308 0
0.20569102 0.19830886 0.43504757 0.17478429 0.95347863 -0.24561962 0
0.21105133 0.19269557 0.43552437 0.98574984 0.12875313 -0.1082593 0
-0.17244634 0.20018499 0.4374125 -0.16836156 0.95463014 -0.24563324 0
-0.16478375 0.20081306 0.43578205 -0.068052717 0.98124743 -0.18033941 0
-0.15754259 0.20047079 0.43614417 0.097897157 0.99146974 -0.086045973 0
0.20013586 0.20040566 0.43922335 0.1836938 0.95334572 -0.23955911 0
-0.23522711 -0.2341619 0.4449082 -0.72667754 -0.66588688 0.16892111 0
-0.22492146 -0.23700574 0.44517976 -0.034575038 -0.99630201 0.078656487 0
-0.21499272 -0.23713008 0.44448355 -0.0049586464 -0.99710077 0.075931177 0
-0.20591038 -0.23710512 0.44541886 -0.0049864072 -0.9965716 0.082584158 0
-0.1929666 -0.2371574 0.44532713 -0.0045442712 -0.99836171 0.057038166 0
