# .PCD v0.7 - Point Cloud Data file format
VERSION 0.7
FIELDS x y z
SIZE 4 4 4
TYPE F F F
COUNT 1 1 1
WIDTH 1401
HEIGHT 1
VIEWPOINT 0 0 0 1 0 0 0
POINTS 1401
DATA ascii
0.044377614 0.024860607 0.17445411
0.35567254 0.026402745 0.17433719
0.36462283 0.025054436 0.17426674
0.39554349 0.024923623 0.17503957
0.40354946 0.026510866 0.17555502
-0.0030115817 0.03513366 0.17449407
0.0034805774 0.035523228 0.17546342
0.034391738 0.035132132 0.17519066
0.04530048 0.034877356 0.17468213
0.35579553 0.035061516 0.17415708
0.36427918 0.037464492 0.17537716
0.39558339 0.036824193 0.17571099
0.40301618 0.034877993 0.17655301
-0.006800279 0.040922061 0.17203289
0.0063102599 0.040696271 0.17409658
0.012952193 0.040568627 0.17495894
0.02653197 0.040632822 0.17551048
0.034518614 0.040713605 0.17461079
0.043735377 0.040580381 0.17266706
0.3577086 0.040646017 0.17220978
0.36714405 0.040624283 0.17472389
0.37346867 0.040634643 0.17550771
0.38724297 0.040551804 0.17491846
0.39425966 0.040684469 0.17451398
0.4029505 0.040681113 0.17589082
-0.0053191069 0.36477888 0.17505978
0.0045654667 0.36305791 0.17595764
0.014724708 0.36069757 0.17378646
0.024978602 0.36067998 0.17460157
0.033726078 0.36149278 0.17506422
0.043458723 0.36296257 0.17537254
0.35552332 0.36313611 0.1741472
0.36536503 0.36270753 0.17534597
0.37495214 0.36067033 0.17486192
0.38508758 0.36071092 0.17391682
0.39513436 0.36169854 0.17550099
0.40346426 0.36382514 0.17544816
-0.0035079056 0.37528846 0.17416219
0.0039663287 0.37566501 0.17427237
0.037238598 0.37522069 0.17582671
0.043847874 0.37566674 0.17463684
0.35867405 0.3747586 0.17312725
0.36547986 0.37387404 0.17648071
0.39535838 0.37545252 0.17612819
0.40281805 0.37518659 0.17431049
-0.0027718444 0.38649654 0.17351566
0.0040199435 0.3843317 0.1770684
0.034207575 0.38274634 0.17539924
0.044155844 0.38481975 0.17560369
0.35505441 0.38593876 0.17360906
0.36399996 0.38443711 0.17541079
0.3960835 0.3848305 0.1735051
0.40374556 0.38630897 0.17564331
-0.0037317933 0.39499182 0.17530847
0.0032671737 0.39445123 0.17484955
0.016227111 0.39999974 0.17224285
0.029353723 0.39999986 0.17224285
0.035901506 0.39461836 0.17539635
0.044035599 0.39755359 0.17507966
0.35783815 0.39523515 0.17522651
0.36463496 0.39405143 0.17511827
0.3706463 0.3999998 0.17224285
0.38377297 0.39999974 0.17224285
0.39635715 0.39480272 0.17433289
0.40321577 0.39519134 0.17469616
-0.0038648886 0.40052825 0.1762812
0.0062743574 0.40057915 0.17537162
0.01545962 0.40049899 0.17523926
0.025280708 0.40051922 0.17467076
0.03510708 0.40055111 0.17509423
0.042993758 0.40033123 0.17536823
0.35629347 0.40056092 0.17374924
0.3656517 0.40059078 0.17548813
0.37471783 0.40052024 0.17466891
0.38454407 0.40049842 0.17523721
0.39429483 0.40052718 0.17600459
0.4013775 0.40043417 0.17582497
-0.0039644996 0.0049621542 0.18472321
0.0037327104 0.0044136322 0.18451792
0.014848483 0.00049780385 0.18426226
0.024891684 0.00061187678 0.18467849
0.034158912 0.0017999397 0.18483806
0.0439451 0.004097336 0.18438028
0.35758936 0.0015788712 0.18437588
0.3651337 0.0036652996 0.18522304
0.3751148 0.00061166356 0.18467876
0.38515189 0.0004963532 0.18426144
0.3963854 0.0028773064 0.18492042
0.4022629 0.0034935379 0.18563335
-0.0035055068 0.016540198 0.18652399
0.0033874176 0.015465866 0.18480247
0.035608955 0.014803302 0.18480185
0.045779988 0.014716445 0.18507135
0.35742229 0.0148196 0.18310808
0.3656776 0.016064396 0.18440616
0.39740923 0.014750606 0.18416637
0.40358368 0.014537352 0.18566285
-0.0037606121 0.024290428 0.18543439
0.0038461685 0.02416278 0.18482848
0.037856203 0.024131596 0.18685134
0.044379674 0.025328603 0.1862229
0.35714102 0.025444306 0.18484911
0.36454448 0.024830276 0.18553562
0.39876407 0.025601095 0.18430078
0.40393981 0.0246053 0.18526305
-0.0034998655 0.035835963 0.18589385
0.0045542396 0.035197411 0.18469712
0.036929652 0.036184315 0.18590647
0.044826429 0.035326898 0.18549196
0.35811734 0.033487786 0.18349628
0.36590073 0.035382327 0.18509741
0.39431372 0.032936554 0.18467784
0.40351421 0.034850325 0.18558045
-0.003788786 0.040564179 0.18634227
0.0050407853 0.040736988 0.18492442
0.015534128 0.04061982 0.18459602
0.025230978 0.040688664 0.18450007
0.037187234 0.040606987 0.18479492
0.042606145 0.040605009 0.1844559
0.35708553 0.04080037 0.18657909
0.36546332 0.040638428 0.18558864
0.37481752 0.040665794 0.18438315
0.38499403 0.040662643 0.184725
0.39455193 0.040526774 0.18378952
0.40286091 0.040588398 0.18273032
-0.0029343755 0.36305663 0.1857677
0.0054102074 0.36281589 0.18519236
0.015487755 0.3606461 0.18518098
0.024104536 0.36072114 0.18452176
0.034107976 0.36142498 0.18547894
0.044874176 0.36449832 0.1858976
0.35594916 0.3636322 0.18636262
0.36572221 0.36324745 0.18566965
0.37590304 0.36072111 0.18452166
0.38475558 0.36067033 0.18482418
0.3942261 0.36221406 0.18540493
0.40342197 0.36397132 0.18507081
-0.0037478609 0.37435398 0.18510699
0.0032380731 0.37541407 0.18334134
0.03553313 0.37501881 0.18353647
0.044559438 0.37479481 0.18398841
0.35696927 0.3753337 0.18407916
0.36499357 0.37591988 0.18492539
0.3957293 0.37655601 0.18404156
0.40355149 0.37505391 0.18567564
-0.003366679 0.38378376 0.18617819
0.0044513056 0.38473573 0.18424876
0.038183965 0.38502604 0.18487541
0.044216596 0.38534734 0.18557721
0.35571969 0.38304028 0.18507977
0.36409104 0.3840847 0.18403411
0.39655185 0.38587877 0.1847011
0.40361878 0.3852011 0.18603037
-0.0035648025 0.39466032 0.18598719
0.0036719791 0.39445907 0.18365316
0.016227111 0.39999974 0.18536946
0.029353723 0.39999986 0.18536946
0.036714941 0.39342791 0.18467227
0.044728402 0.39597395 0.1856014
0.35691267 0.39418024 0.1851583
0.36464733 0.39595878 0.18414944
0.3706463 0.3999998 0.18536946
0.38377297 0.39999974 0.18536946
0.39549163 0.39529544 0.18524249
0.40309021 0.3946875 0.18582052
-0.0023083992 0.40056044 0.18605122
0.0056763017 0.40049794 0.18524925
0.016155239 0.40053162 0.18611126
0.026156351 0.40057892 0.18490492
0.03396295 0.40057361 0.18432036
0.041678667 0.40056992 0.18672353
0.35764703 0.40076733 0.18213266
0.36504132 0.40058199 0.18423447
0.37370414 0.40058577 0.18511491
0.38383934 0.40053052 0.18610993
0.39353427 0.40051708 0.18488973
0.403375 0.40046775 0.18666261
-0.0034406458 0.0038885053 0.19467041
0.0034404502 0.0037805131 0.19367993
0.014420741 0.00057617325 0.19531268
0.024707722 0.00054649776 0.19521891
0.035582516 0.0017993393 0.19501917
0.044606909 0.0041921418 0.19603418
0.35576555 0.0030808391 0.19483082
0.36548257 0.0029784869 0.19465549
0.37529173 0.00054874626 0.19521606
0.38558263 0.0005728493 0.1953146
0.39602596 0.0040017408 0.19538191
0.4034237 0.0045547895 0.19525459
-0.0036244839 0.016212674 0.19680463
0.0037292179 0.017818492 0.19471531
0.034543931 0.013890386 0.19412702
0.045894518 0.014833081 0.19444732
0.355037 0.012433603 0.19804913
0.36484167 0.01541801 0.19416173
0.39547473 0.015511816 0.19665667
0.40302983 0.013848693 0.19551007
-0.0024294197 0.023694878 0.19608721
0.0031353037 0.024308598 0.19433264
0.03454151 0.024314025 0.1922342
0.044598363 0.025114296 0.1949788
0.35526264 0.024921237 0.19396573
0.3638435 0.024660243 0.19382298
0.39542672 0.02276355 0.19392037
0.40311769 0.024149347 0.1947414
-0.0044344217 0.036334276 0.19543044
0.0031316646 0.03383138 0.19486336
0.034454595 0.034136329 0.19658126
0.045254912 0.033961728 0.19454566
0.35576305 0.033011027 0.19572717
0.36493304 0.034690984 0.19428225
0.39511234 0.035373904 0.19512486
0.40324718 0.035506047 0.19460705
0.0068681301 0.040739868 0.19402085
0.014903112 0.040579483 0.19498187
0.02385723 0.040666942 0.19527216
0.035853162 0.040658832 0.19520481
0.043547396 0.040659308 0.19928212
0.35863185 0.040647067 0.19489518
0.36506936 0.040695678 0.19685405
0.37624043 0.040681165 0.19516018
0.38496158 0.040557716 0.19526154
0.39321697 0.040708974 0.19440487
0.40363708 0.04061275 0.19469661
-0.0038246636 0.36309102 0.19694573
0.0045543015 0.36248475 0.19503374
0.016040372 0.36074358 0.19512708
0.026180455 0.36066365 0.19484016
0.035438638 0.36181575 0.19640423
0.043084539 0.36336854 0.19480996
0.35555625 0.36517057 0.19453801
0.36441612 0.3619023 0.19581023
0.37381917 0.36066279 0.19484209
0.38408408 0.36071014 0.19506507
0.3952845 0.36229423 0.19568287
0.40350387 0.36375326 0.1948643
-0.0036278092 0.37360817 0.19611672
0.0030975905 0.37662831 0.19486287
0.037513684 0.37475997 0.19561078
0.045881879 0.3735815 0.19470401
0.35879183 0.37600327 0.19860184
0.3648257 0.37336466 0.19528109
0.39771748 0.37640908 0.19490014
0.4030377 0.37556067 0.19589591
-0.00371271 0.38403675 0.19591862
0.0033047348 0.38414583 0.19260228
0.036197443 0.38383821 0.19723849
0.044596154 0.38464794 0.19430572
0.35654497 0.38475212 0.19373664
0.36427784 0.38538396 0.19365372
0.39615941 0.38581643 0.19394112
0.40477765 0.38596091 0.19481371
-0.0025009573 0.39648822 0.19596174
0.0033012575 0.39500254 0.19483395
0.016227111 0.39999974 0.1984961
0.029353723 0.39999986 0.1984961
0.035710111 0.39407796 0.19626129
0.045397691 0.39582029 0.19435932
0.35789022 0.39566684 0.19773158
0.36547753 0.39619756 0.19511838
0.3706463 0.3999998 0.1984961
0.38377297 0.39999974 0.1984961
0.39718965 0.39623678 0.19535582
0.40257183 0.39358062 0.19586369
-0.0043882243 0.40033925 0.19794224
0.0064897118 0.40057895 0.19528255
0.01507135 0.40049234 0.19383062
0.025074309 0.40050599 0.19484545
0.034513276 0.40058938 0.195124
0.042467531 0.40052691 0.19302689
0.35525566 0.40059823 0.19401985
0.36560434 0.4005155 0.19452789
0.37519184 0.40048608 0.19514115
0.38493845 0.40049329 0.19377823
0.393621 0.40055418 0.19491462
0.403063 0.40053606 0.19486892
-0.0036154955 0.0031721778 0.20528248
0.0041995253 0.002962712 0.20525011
0.015227236 0.00050478464 0.20446415
0.025097976 0.00056293607 0.20319195
0.034397464 0.0012785378 0.20490561
0.044234421 0.0024355352 0.20379014
0.35587582 0.0032330307 0.2033776
0.36612999 0.0025654768 0.20478728
0.37490875 0.00055763719 0.20319395
0.38477409 0.00050286541 0.20446077
0.39542034 0.0017936538 0.20409101
0.40280735 0.0047530727 0.20502168
-0.0037413219 0.017938336 0.2041848
0.0040814467 0.0147775 0.2040965
0.034081489 0.011855635 0.20395762
0.044813439 0.014655489 0.2056928
0.3551136 0.013715687 0.20393021
0.36622229 0.015067519 0.20487569
0.39425281 0.015565578 0.20577995
0.40416729 0.015782248 0.20525639
-0.003926713 0.024768373 0.20487225
0.0031259921 0.02376893 0.20330435
0.036914658 0.024273263 0.20447774
0.043908712 0.025299532 0.20550795
0.35586125 0.026212834 0.20480348
0.36374342 0.024812667 0.20577689
0.3978059 0.023579892 0.20382598
0.40438652 0.024428125 0.20637
-0.0021682403 0.036416776 0.20549169
0.0039451811 0.034791045 0.20388292
0.03549378 0.03357137 0.20561859
0.044944592 0.035469074 0.20498748
0.35551977 0.036531109 0.2067064
0.36491567 0.036168892 0.20605859
0.39601442 0.035256572 0.20426571
0.40314817 0.035242364 0.20612079
-0.004672775 0.040643409 0.20574172
0.0059536379 0.040626436 0.20521814
0.015803 0.04061652 0.20526913
0.025828736 0.040673267 0.20460291
0.036178697 0.040638551 0.20519499
0.045388501 0.040327054 0.20755057
0.3560257 0.040703971 0.20382106
0.36669049 0.040585529 0.20485058
0.37432671 0.040693924 0.20481569
0.38395754 0.040642817 0.2051549
0.39517745 0.040578902 0.20582348
0.40267745 0.040747672 0.20559844
-0.0036862679 0.36465406 0.20466565
0.0049402453 0.36319143 0.20408802
0.015453987 0.36075047 0.20619398
0.02435508 0.36071751 0.20405801
0.033715788 0.36228883 0.20551296
0.043815508 0.36233631 0.20577131
0.35584486 0.36447346 0.20398228
0.36550784 0.36309966 0.20529418
0.37564117 0.36071414 0.20405379
0.38476607 0.36073729 0.20590284
0.39411864 0.36198959 0.20354892
0.40402353 0.36344606 0.20458746
-0.0033740008 0.37490261 0.20633301
0.0040513817 0.37534022 0.20447022
0.03559253 0.37541321 0.20406432
0.046156481 0.37471458 0.20472451
0.35600606 0.37414911 0.20578937
0.36623919 0.37505734 0.20457493
0.39730817 0.37611434 0.20500013
0.40380102 0.37613493 0.20530571
-0.0041286587 0.38527825 0.20567274
0.0036569112 0.38494802 0.20441523
0.035042968 0.38408497 0.20419966
0.043799367 0.38487878 0.20537665
0.35642517 0.38408843 0.20733695
0.36435276 0.38405782 0.20526469
0.39711651 0.38450396 0.2039061
0.40410078 0.38655314 0.20441929
-0.0033573508 0.39546645 0.20486349
0.0038271339 0.39519358 0.20468512
0.037360281 0.39442018 0.20617974
0.044420518 0.3958348 0.20461518
0.35586637 0.39457831 0.20520826
0.36466506 0.39561734 0.20468172
0.39707485 0.39601287 0.20435429
0.4040888 0.39503133 0.20527261
-0.00023269653 0.40046483 0.20176658
0.005730778 0.4004384 0.20497026
0.015769234 0.40053558 0.20443749
0.025617605 0.40054223 0.20539448
0.03416273 0.40054205 0.20500924
0.044614568 0.40043381 0.20533744
0.35817438 0.4006536 0.20718205
0.36568916 0.40058109 0.20426109
0.37438825 0.40054062 0.20539488
0.38422954 0.40053532 0.20443557
0.39602622 0.40043116 0.2040129
0.40192902 0.40055048 0.20437759
-0.0026108983 0.0038751103 0.21444689
0.0040203165 0.0037651702 0.21547435
0.014179666 0.00056504185 0.21479794
0.024982408 0.0005866047 0.21501896
0.034911945 0.0020749571 0.21444432
0.044077422 0.0035822566 0.21503098
0.35687023 0.0032344887 0.21506278
0.36456281 0.0032986072 0.21407115
0.37502494 0.00058411132 0.21503043
0.3858228 0.00056552101 0.21479721
0.39643383 0.0030698427 0.21507663
0.40308475 0.0037555695 0.21494305
-0.0036158827 0.016604595 0.2151081
0.0040517454 0.014299501 0.21628127
0.034812286 0.015017767 0.21469063
0.045294482 0.014316536 0.21736372
0.3568356 0.014927423 0.21361685
0.36634779 0.014414862 0.21629618
0.39529392 0.015625663 0.21554564
0.40302116 0.015622265 0.21474886
-0.0045743086 0.025164369 0.21386655
0.0038771417 0.024636477 0.2148754
0.03674116 0.027306736 0.21437365
0.045074433 0.024962986 0.21511984
0.35731432 0.026519183 0.21514101
0.36551902 0.025438866 0.21484093
0.39669684 0.023551164 0.21535887
0.40338969 0.024822399 0.21366341
-0.0033829696 0.035240743 0.214849
0.0045727724 0.035405777 0.21445034
0.034455955 0.034739822 0.21400659
0.045553137 0.036558449 0.21548739
0.35949314 0.032197714 0.21583697
0.36619443 0.036108121 0.21472706
0.39465258 0.036525857 0.21521306
0.40386587 0.034869052 0.21469294
-0.0061453441 0.040475916 0.2123719
0.0059096287 0.040628452 0.21553212
0.01508616 0.040698595 0.21407931
0.025968226 0.040621642 0.21525098
0.034984238 0.040561356 0.21479824
0.043410562 0.040681455 0.21566775
0.35821545 0.04021658 0.21036193
0.36570197 0.040566288 0.21456701
0.37420103 0.040654834 0.21519206
0.38491905 0.040696092 0.21407983
0.39524567 0.040605582 0.21522275
0.40238678 0.040601332 0.21750063
-0.0046707299 0.36607477 0.21541813
0.0052601802 0.36288002 0.21469764
0.015605867 0.3607223 0.2144521
0.024868539 0.3607378 0.21519688
0.034600314 0.36186001 0.21444659
0.044428684 0.36513633 0.21432826
0.35800204 0.36134776 0.21465333
0.36593238 0.36299312 0.21596389
0.37537196 0.36071327 0.21547593
0.3841801 0.36075214 0.21462357
0.39458054 0.36289829 0.21406087
0.40366513 0.36277676 0.21651295
-0.0032087991 0.37684551 0.21527216
0.0031025626 0.37593013 0.21561374
0.036038775 0.37419471 0.21423681
0.044615526 0.37484688 0.21364528
0.35613105 0.37616476 0.21476501
0.36371267 0.37376547 0.21414943
0.39630058 0.37543547 0.21673384
0.40334091 0.37476808 0.21513
-0.0049715191 0.38488969 0.21668339
0.0040437048 0.38469571 0.21436018
0.039160252 0.38338146 0.21515554
0.045418587 0.3838149 0.2167547
0.36485517 0.38536084 0.21494044
0.39571986 0.38334304 0.21364471
0.40374306 0.38506109 0.2151691
-0.0030524528 0.39631951 0.21514894
0.0032826937 0.39446265 0.21576723
0.016227111 0.39999974 0.21162277
0.029353723 0.39999986 0.21162277
0.036262326 0.39363825 0.21546546
0.044683184 0.39630941 0.21546087
0.35846663 0.39563119 0.21656211
0.36459279 0.39497343 0.21371636
0.3706463 0.3999998 0.21162277
0.38377297 0.39999974 0.21162277
0.39617428 0.39568955 0.2157778
0.40293863 0.39585796 0.21427093
-0.0044341492 0.4005284 0.21555424
0.0059733582 0.40050533 0.21514584
0.015001209 0.40059355 0.21536112
0.025953721 0.40053844 0.2144006
0.035526101 0.40052778 0.21578725
0.043565378 0.40044543 0.21415487
0.35890129 0.40054256 0.2186144
0.36522225 0.40052864 0.21620755
0.37403855 0.40053731 0.21439774
0.38500321 0.40058953 0.21536021
0.39323595 0.40050268 0.21477571
0.40219644 0.40049836 0.21549715
-0.0034040844 0.005037914 0.22529814
0.0043627168 0.0031214356 0.22490597
0.014530886 0.00057369506 0.2246841
0.025430977 0.0005607967 0.22521047
0.034821048 0.0011612814 0.22545494
0.044047311 0.00432947 0.22497378
0.35619864 0.0015529123 0.2261643
0.36626983 0.0021682859 0.2257268
0.37456897 0.00056133111 0.22520192
0.38547575 0.00057322514 0.2246819
0.39559329 0.0032784289 0.22436623
0.40288475 0.004078628 0.22628243
-0.0046838089 0.016284242 0.22636183
0.0035104156 0.015973508 0.22401226
0.036992431 0.015943393 0.22410023
0.046056326 0.015270939 0.22293052
0.35527587 0.014082065 0.22567074
0.36437395 0.013406214 0.22424234
0.39561287 0.017926009 0.22498555
0.40429652 0.01361837 0.22523242
-0.0028226017 0.025743956 0.22519188
0.003268969 0.024328716 0.22555904
0.035994321 0.023032675 0.22622618
0.044154752 0.026783284 0.22438917
0.35479146 0.026893642 0.22637138
0.36468211 0.02399537 0.22437768
0.39583302 0.024768895 0.22310629
0.403828 0.02501902 0.22510982
-0.0034098204 0.03520792 0.22520582
0.004294523 0.033567905 0.22452854
0.037665844 0.035539143 0.22338948
0.044606801 0.035222717 0.22335093
0.35659105 0.036679752 0.22648688
0.36416548 0.034342714 0.22519761
0.39649698 0.035548728 0.22567479
0.40377954 0.036105569 0.22540875
0.0057320874 0.040665414 0.22583658
0.01533078 0.040504787 0.2234778
0.024476729 0.040749844 0.22489096
0.034210101 0.040573519 0.22530654
0.043900624 0.040582895 0.22506912
0.35988852 0.040598601 0.22574683
0.3670252 0.040567469 0.22538093
0.3757903 0.040718146 0.22469923
0.38510612 0.040530127 0.22380707
0.39417753 0.04064678 0.22575581
0.40276709 0.040575605 0.2293154
-0.0039786468 0.36471575 0.22498728
0.0048778942 0.3635391 0.22554617
0.014153046 0.36066943 0.22662076
0.024041621 0.36070538 0.22579835
0.036285363 0.3613179 0.22493188
0.044005647 0.36314487 0.22573845
0.35679933 0.36442041 0.22613899
0.3653363 0.36320373 0.22427848
0.3757011 0.36073405 0.22579494
0.38585013 0.36066478 0.22661991
0.39513239 0.36225045 0.22446117
0.40323398 0.3637957 0.22606474
-0.0019464692 0.37419221 0.22663145
0.003381693 0.37665769 0.22390687
0.037341878 0.37375867 0.22300524
0.044256218 0.372648 0.22542045
0.35636789 0.37594295 0.22420892
0.36430153 0.37343478 0.22704212
0.3961384 0.37510961 0.22493441
0.40305829 0.37570187 0.22656578
-0.002977995 0.38264757 0.22572955
0.0033807878 0.38370681 0.2253478
0.03806277 0.38487324 0.22495611
0.044207361 0.38487333 0.22588356
0.35552904 0.3843118 0.2256247
0.36448884 0.38508907 0.22506617
0.39621937 0.38448691 0.22537903
0.40376925 0.38507649 0.22593966
-0.0034332871 0.39567229 0.22540069
0.0031165394 0.39528474 0.22611277
0.016227111 0.39999974 0.22474942
0.029353723 0.39999986 0.22474942
0.037271053 0.39191616 0.22377972
0.044441998 0.39512041 0.22414529
0.35632539 0.39588055 0.22389108
0.36463934 0.39532012 0.22451761
0.3706463 0.3999998 0.22474942
0.38377297 0.39999974 0.22474942
0.39564136 0.3978214 0.22455192
0.40249604 0.39548895 0.22662608
-0.004269287 0.40070766 0.22431326
0.0053379592 0.40068766 0.22396567
0.014855004 0.40048581 0.22537725
0.025686854 0.40056714 0.22481805
0.034281537 0.40061712 0.22597109
0.042897124 0.40048862 0.22334407
0.35792175 0.40051314 0.22485757
0.36559746 0.4006235 0.22637826
0.37430942 0.40056679 0.22482222
0.38514465 0.40048367 0.22537528
0.3955791 0.40053156 0.22490698
0.40261382 0.40051827 0.22480729
-0.0031600695 0.0031871132 0.23609014
0.0045782956 0.0022688932 0.23457991
0.015866473 0.00060187827 0.23583734
0.025017053 0.00060417503 0.23483348
0.033722192 0.0017782176 0.23466073
0.04384638 0.0040977537 0.23529084
0.35508391 0.0031460556 0.23431508
0.36564276 0.0034802679 0.23510152
0.37498662 0.00060392794 0.23482586
0.38421574 0.00062130095 0.23604396
0.39585611 0.0022888724 0.23446357
0.40280241 0.0044661774 0.23349869
-0.0029507503 0.016079092 0.23368922
0.003877122 0.015656495 0.23513551
0.03574577 0.013985507 0.23576014
0.044923976 0.014982346 0.23622005
0.35494384 0.015413309 0.23597908
0.36586905 0.012409696 0.23418875
0.39631167 0.018000694 0.23258626
0.40271759 0.016146477 0.2340458
-0.0051834858 0.024089651 0.23577106
0.0038694798 0.025009492 0.23481549
0.038128357 0.026548803 0.23682976
0.044977445 0.025802942 0.23582307
0.35763392 0.027496696 0.23491819
0.36432442 0.024580088 0.23624864
0.39811379 0.023078339 0.2363385
0.40388727 0.025071885 0.23582642
-0.0034311183 0.036179431 0.23445159
0.0038006187 0.035395149 0.23434763
0.034170438 0.033664301 0.23475567
0.044124767 0.035663366 0.23605296
0.35351488 0.034305699 0.23510173
0.3646172 0.036598437 0.23527083
0.39578122 0.034670599 0.23614487
0.40352619 0.034944639 0.23627445
0.0050642267 0.040624447 0.23544888
0.016557457 0.040654156 0.23429538
0.025092065 0.040597517 0.23522054
0.03506225 0.040705517 0.23479754
0.04447506 0.04054936 0.23531568
0.35818577 0.040696185 0.23521531
0.36564195 0.040698987 0.23525405
0.37491012 0.040597271 0.23521954
0.38357306 0.040631004 0.23453583
0.39506719 0.04063328 0.23536699
0.40452352 0.040689927 0.23482971
-0.0037334561 0.36650509 0.23542145
0.0042785294 0.36291131 0.23469363
0.014916444 0.36079034 0.23440097
0.025501784 0.36062828 0.2354299
0.034562211 0.36156482 0.23510154
0.044879951 0.36432165 0.23447219
0.35700342 0.36297432 0.23596041
0.36554828 0.36269343 0.23443621
0.37449962 0.36062914 0.23543051
0.38526827 0.36078113 0.23436375
0.39567956 0.3635745 0.23569918
0.40392846 0.36375567 0.23401088
-0.0039528073 0.37565684 0.23414417
0.0037966226 0.37540606 0.23492528
0.035836659 0.37629092 0.23615026
0.04253459 0.37954181 0.23345773
0.35583863 0.37709555 0.2355839
0.36564499 0.37557527 0.2357143
0.39683011 0.37799206 0.23345821
0.40273079 0.37653548 0.23383918
-0.0032887491 0.38520762 0.23457795
0.0043462096 0.38479787 0.23494916
0.034812961 0.3837451 0.2352027
0.045466702 0.38254595 0.23392642
0.35637912 0.38773251 0.23741035
0.36511314 0.38367087 0.23403914
0.39588952 0.3835434 0.23675437
0.40438262 0.38429487 0.23513308
-0.0027923393 0.39400211 0.23341906
0.0037592396 0.39447153 0.23405482
0.016227111 0.39999974 0.23787603
0.029353723 0.39999986 0.23787603
0.036283642 0.39467812 0.23611607
0.045127109 0.39671916 0.23558317
0.35585657 0.39420375 0.23545642
0.36547625 0.39637488 0.23522806
0.3706463 0.3999998 0.23787603
0.38377297 0.39999974 0.23787603
0.39682478 0.39580446 0.23457855
0.40381998 0.39353073 0.2337438
-0.0028364924 0.40055969 0.23387414
0.0065095392 0.40053257 0.23489165
0.015090172 0.40054074 0.23453966
0.024438219 0.40048808 0.2341768
0.03491164 0.40049732 0.23418108
0.042289544 0.40042844 0.23429704
0.35778612 0.40065587 0.23825592
0.36560333 0.40054002 0.23362894
0.37556538 0.40048891 0.23417512
0.38490722 0.40054145 0.23454626
0.39376152 0.40050724 0.2354763
0.40375179 0.40053636 0.23461668
-0.0032468617 0.0029291844 0.24481072
0.0043258648 0.003199202 0.24499945
0.01356904 0.00057459774 0.24376658
0.02613486 0.00055179745 0.24381208
0.034410965 0.0018291471 0.24418522
0.043272998 0.0044895615 0.2446669
0.35643581 0.0037555567 0.24365976
0.36563724 0.0023733359 0.24502696
0.37386915 0.00055023417 0.24381661
0.38648275 0.00054306752 0.2440317
0.39526844 0.0029094308 0.24467181
0.40261105 0.0030065326 0.24398403
-0.0031594173 0.016267767 0.24476914
0.00361758 0.015246037 0.24578629
0.034087252 0.013928648 0.24337676
0.043844957 0.013740391 0.24547045
0.35729203 0.014626582 0.24668448
0.36518756 0.0132547 0.24251875
0.39638042 0.016463129 0.24506128
0.40400845 0.015756061 0.24295703
-0.0014439821 0.025931872 0.24416637
0.0043750862 0.026515847 0.24494061
0.034057349 0.025648475 0.24491696
0.044806324 0.02468559 0.24523351
0.35651541 0.026034836 0.24538365
0.364957 0.024667865 0.24650514
0.39580914 0.025059761 0.24453132
0.40374681 0.025725689 0.24339853
-0.0034543008 0.035214655 0.24467111
0.0040202737 0.032630865 0.24511215
0.03602149 0.036509704 0.24364306
0.045135327 0.036317129 0.2446712
0.35721335 0.035302445 0.24390894
0.36529726 0.035882108 0.24430868
0.39658436 0.034841571 0.2449079
0.40383402 0.035090856 0.2441442
-0.0033915313 0.040693693 0.24492255
0.0039201942 0.040667847 0.24474984
0.015590601 0.040602583 0.24464054
0.025210915 0.040614139 0.24492906
0.037041739 0.040528238 0.24454206
0.041614901 0.040525872 0.24618529
0.36305767 0.040648591 0.24478295
0.37478921 0.040613316 0.24492611
0.38424009 0.040644862 0.24497885
0.39510748 0.040542342 0.24456544
0.40191594 0.040631726 0.24636471
-0.004603155 0.36412641 0.24544704
0.0050139679 0.36250487 0.24393684
0.014619183 0.36073178 0.2459119
0.023675805 0.36058816 0.24461077
0.035858318 0.36132079 0.24609865
0.044447258 0.36390185 0.24522156
0.35646412 0.36292371 0.24477622
0.36504972 0.36431819 0.24453141
0.37674722 0.3605727 0.24449962
0.38526395 0.36075786 0.24557061
0.394665 0.36303183 0.24461773
0.40395594 0.36365911 0.24454734
-0.0030232838 0.3757467 0.24518934
0.0024395473 0.37593418 0.24416821
0.03585051 0.37482408 0.2435216
0.044749312 0.37440941 0.24433799
0.35558257 0.37609944 0.24500033
0.36496049 0.3738935 0.2445579
0.3965503 0.37406182 0.24466974
0.4035475 0.37519211 0.24449039
-0.0046183406 0.38344505 0.24580319
0.0031108609 0.38408586 0.24407685
0.038640339 0.38416043 0.24403112
0.043821666 0.38489246 0.24365035
0.35774204 0.38477153 0.24393243
0.36405057 0.38549757 0.24537954
0.39601433 0.38347259 0.24293089
0.40366524 0.38508353 0.24293868
-0.010059118 0.39068824 0.24735075
-0.0034123077 0.39373827 0.24464154
0.0026800677 0.39406574 0.24330749
0.035894923 0.39320904 0.24305634
0.044565424 0.39521813 0.2456274
0.35761046 0.3963342 0.24468872
0.3642455 0.39204699 0.24268541
0.39654672 0.39515755 0.24496882
0.40289351 0.39468393 0.24341559
-0.0041693449 0.40068507 0.24313346
0.0061911028 0.40061462 0.24401398
0.015190232 0.40053979 0.24581882
0.025445294 0.40054494 0.2447633
0.034442734 0.40055701 0.24454863
0.043560002 0.40052897 0.24693599
0.35766888 0.40057126 0.24447893
0.36628187 0.40051806 0.24538243
0.37456036 0.40054587 0.24476844
0.38480538 0.40053967 0.24581614
0.39423677 0.40055025 0.24425121
0.4018628 0.40051031 0.24547042
-0.0028678502 0.004909378 0.25701904
0.0053017559 0.0026592554 0.25555623
0.015579376 0.00054751791 0.25541887
0.025491798 0.00054196676 0.25536841
0.035157911 0.0023355815 0.25463316
0.044953205 0.0045510931 0.25573924
0.35446638 0.0035889319 0.25699174
0.36530027 0.0032392726 0.25507098
0.37450901 0.00054020807 0.25536612
0.38442162 0.00054651417 0.25541633
0.39470553 0.002243554 0.25568566
0.40306371 0.0041599702 0.2560361
-0.0038167324 0.015460334 0.25508583
0.0034047931 0.015638009 0.25502187
0.037144974 0.015482925 0.25653544
0.046304703 0.013668845 0.2551977
0.35874832 0.017740309 0.25721687
0.36530975 0.015046245 0.25533217
0.39524126 0.015149423 0.25486726
0.40345299 0.014995445 0.2546218
-0.0041642212 0.025382346 0.25535157
0.003721568 0.025461759 0.25450078
0.037885919 0.026347231 0.25390923
0.044778053 0.026287226 0.25413385
0.35493317 0.025026357 0.25647944
0.36443236 0.024814114 0.25509629
0.39553386 0.024308944 0.25621599
0.40344024 0.025694249 0.25522187
-0.0039065937 0.035669535 0.25401273
0.0036176278 0.03480728 0.25356621
0.035809483 0.034034077 0.25542697
0.045781679 0.034781117 0.2551614
0.3580699 0.033275545 0.25858843
0.36540776 0.035639048 0.25484735
0.39653724 0.033823628 0.25598007
0.40358669 0.033191577 0.25432715
-0.0020625591 0.040492296 0.25481242
0.0054862848 0.040631842 0.25601184
0.015103892 0.040634673 0.25528598
0.025534667 0.040706947 0.25531456
0.033963576 0.040658791 0.25736031
0.042598922 0.040685296 0.25547442
0.35786128 0.040773533 0.25627798
0.36620647 0.040653948 0.25620306
0.37418669 0.040732734 0.25537473
0.38488987 0.04064047 0.25522873
0.39589998 0.040703181 0.25569198
0.40440321 0.040528614 0.25399432
-0.0044570765 0.36566758 0.25520703
0.0048547704 0.3623974 0.2542446
0.015376787 0.36073568 0.25496158
0.024837872 0.36068574 0.25600854
0.036290418 0.36212203 0.25492138
0.044061784 0.36654031 0.25669089
0.35467693 0.36367783 0.25621626
0.36525288 0.36307767 0.25496751
0.37514904 0.36070734 0.25597566
0.38463452 0.36073557 0.25496346
0.39469522 0.36274227 0.25499997
0.40262574 0.36227271 0.2556012
-0.0043818844 0.3761619 0.25434685
0.0038192961 0.37534875 0.25451064
0.038006984 0.37640858 0.25631613
0.046519689 0.37453908 0.25622723
0.35737878 0.37453741 0.25484082
0.36479554 0.37319076 0.25774932
0.39575449 0.37597468 0.2560178
0.40355957 0.37486073 0.25728175
-0.0040767202 0.38536885 0.25451344
0.0039703758 0.38593313 0.25439578
0.035726778 0.38659212 0.25586534
0.043989934 0.38490915 0.25672057
0.35666743 0.38189507 0.25687957
0.36370042 0.38493267 0.25651222
0.39691213 0.38520736 0.25473106
0.40377322 0.38537496 0.25637275
-0.0046713538 0.39724994 0.25445837
0.0034562892 0.395652 0.25434896
0.016227111 0.39999974 0.25100267
0.029353723 0.39999986 0.25100267
0.037946057 0.39458284 0.25604731
0.044676624 0.39768901 0.25412634
0.35654822 0.39476454 0.25620404
0.36496437 0.39482179 0.25389972
0.3706463 0.3999998 0.25100267
0.38377297 0.39999974 0.25100267
0.39680654 0.39577511 0.25613847
0.40311781 0.39375496 0.25578806
-0.0027916878 0.40050945 0.25601754
0.005378155 0.40042114 0.2541323
0.014128789 0.40051422 0.25547355
0.025353011 0.40051231 0.25476837
0.033219624 0.40051356 0.25551683
0.043562569 0.40053493 0.2542671
0.35653272 0.40066019 0.25645795
0.36665532 0.40049899 0.25602522
0.37464762 0.40051189 0.25476751
0.38587418 0.4005143 0.25547105
0.39438149 0.40049827 0.25397393
0.40278831 0.40045142 0.25733149
-0.0028790035 0.0043474236 0.26519111
0.0052167098 0.0021706789 0.26393911
0.014925553 0.00058062124 0.26525784
0.023134552 0.00051084161 0.26454127
0.034022473 0.001831647 0.26472893
0.043255381 0.0028865733 0.26545969
0.3564769 0.0026588847 0.26349232
0.36655352 0.0028447227 0.2653257
0.37686533 0.00051228207 0.26454237
0.38507411 0.00057764974 0.26525283
0.39437142 0.0022982105 0.26424795
0.40375647 0.0035171469 0.26420367
-0.0044565597 0.013778264 0.26609462
0.0035522594 0.016849754 0.26501992
0.031942189 0.011379883 0.26766181
0.045606367 0.015020458 0.26521209
0.35514489 0.013251372 0.2642341
0.36596438 0.014568609 0.26385427
0.39616743 0.015200793 0.26403287
0.40343872 0.015555381 0.26501402
-0.0028871819 0.025496837 0.26586074
0.0036319853 0.02478751 0.26725641
0.034944229 0.025355931 0.26558569
0.044963904 0.025950562 0.26558313
0.3552151 0.025059983 0.26297745
0.36537477 0.024977205 0.2648474
0.39626423 0.025659528 0.26524651
0.40419 0.026121229 0.265347
-0.0028471765 0.036323413 0.26432994
0.0035466887 0.033521567 0.26457688
0.037977219 0.038801715 0.26188791
0.04438103 0.034183376 0.26388031
0.35756731 0.03393637 0.26347777
0.36568436 0.035870939 0.26352733
0.39675498 0.036124006 0.26447546
0.4029499 0.034334231 0.26472354
-0.0011776276 0.040317655 0.26858076
0.0067649502 0.040490165 0.26232299
0.015689885 0.040703211 0.26475409
0.023303598 0.040631253 0.26512012
0.034252081 0.040589031 0.26436028
0.044404469 0.040672787 0.26710212
0.35768813 0.040982008 0.26153958
0.36602506 0.040682983 0.26517236
0.37651637 0.040611546 0.26491091
0.38431138 0.040703386 0.26475328
0.39542285 0.040576875 0.26488379
0.40307537 0.040636778 0.26389226
-0.0041484055 0.36359385 0.26621377
0.0054546497 0.36387265 0.26495156
0.015327346 0.36077139 0.2646901
0.023956835 0.36067829 0.26538888
0.035331223 0.36297774 0.26334602
0.044059452 0.36421767 0.26530018
0.35617724 0.36321163 0.26534644
0.36452863 0.36269018 0.26362062
0.3759189 0.36070135 0.2655634
0.38426751 0.36076254 0.26408494
0.39495891 0.36368749 0.26470596
0.4034524 0.36256385 0.26423004
-0.0016405821 0.37445396 0.26504675
0.0027414907 0.37585819 0.26399234
0.035730585 0.37460342 0.26685548
0.04655683 0.376026 0.26553428
0.35575628 0.37614283 0.26394862
0.36569616 0.37505797 0.26597378
0.39670265 0.37676349 0.2657325
0.40349853 0.37486315 0.26458368
-0.0029817224 0.38405231 0.26775447
0.0034595758 0.38428479 0.26674873
0.034378074 0.3853094 0.26703927
0.04389796 0.38498056 0.26365027
0.35648665 0.38502654 0.26215011
0.36533144 0.38703629 0.26588011
0.39612985 0.38490027 0.26460069
0.40365908 0.38579917 0.26593605
-0.0015520751 0.39444843 0.26488674
0.0032417905 0.39522728 0.26531219
0.016227111 0.39999974 0.26412934
0.029353723 0.39999986 0.26412934
0.03546657 0.39565507 0.2662774
0.045589019 0.39395991 0.26480469
0.35684422 0.39576182 0.26354116
0.36405063 0.3952724 0.26748654
0.3706463 0.3999998 0.26412934
0.38377297 0.39999974 0.26412934
0.39545408 0.39646789 0.26420656
0.40283403 0.39511585 0.26407951
-0.0038454223 0.40051934 0.26455876
0.0047837081 0.40052822 0.2661027
0.015132238 0.40054843 0.26457906
0.024988998 0.40055686 0.26532179
0.035812367 0.40052164 0.26489082
0.041707747 0.40052193 0.26313132
0.35459945 0.40054616 0.26505551
0.36520043 0.40055335 0.26455155
0.3750082 0.4005554 0.26532054
0.38487163 0.40054616 0.26457691
0.3943674 0.40050441 0.2661849
0.40381512 0.40060067 0.26433483
-0.0032421038 0.0035622148 0.27490339
0.0046781492 0.002781075 0.27422422
0.014580023 0.00055880949 0.27530167
0.023937015 0.00057690818 0.27439564
0.035237767 0.0021679916 0.27498549
0.044506036 0.0052084858 0.27318594
0.35585666 0.0026386739 0.27582988
0.36516395 0.0030042962 0.27498683
0.37606496 0.00057727552 0.27439073
0.38542622 0.00055593043 0.27530584
0.39550075 0.003252957 0.27461082
0.40350696 0.0023748511 0.27461657
-0.0049513876 0.016952587 0.27515304
0.0038191848 0.016414504 0.27485955
0.038488656 0.014087006 0.27518725
0.044873416 0.01701666 0.27442384
0.35420713 0.015824948 0.27553809
0.36706638 0.015971733 0.2740331
0.39453888 0.015666744 0.2733961
0.40317124 0.016486688 0.275758
-0.0034128651 0.024288876 0.27636009
0.0036283345 0.02605921 0.2752277
0.036247406 0.024585636 0.27354506
0.043983784 0.025200495 0.27447653
0.3565855 0.025430467 0.27692747
0.36408508 0.025211303 0.27348828
0.39755768 0.025490526 0.27320918
0.40471637 0.024720782 0.27791458
-0.0026828174 0.036722582 0.27447966
0.0032573054 0.033273481 0.27485111
0.038062796 0.034491617 0.27631986
0.045761254 0.034861341 0.27467158
0.35610986 0.037079439 0.27616802
0.36588734 0.035516817 0.27602428
0.39510283 0.034122001 0.2748968
0.40344507 0.033716064 0.27587712
-0.003504473 0.040624101 0.27732325
0.0048539084 0.040572993 0.27511215
0.01470921 0.040571131 0.27581272
0.024673751 0.040686935 0.27407998
0.035987135 0.040639427 0.27570555
0.044657174 0.04063632 0.2782025
0.35725242 0.040658638 0.27481019
0.36501014 0.040606502 0.27470407
0.37537998 0.040689133 0.27390075
0.38546365 0.040573373 0.27589333
0.39580545 0.04055788 0.27564025
0.40377101 0.040453751 0.27393568
-0.0037500497 0.36654812 0.27479097
0.0042402763 0.36292616 0.27436608
0.015651755 0.36077276 0.27537045
0.023554869 0.36073673 0.27517888
0.034830999 0.360944 0.27583113
0.044394165 0.36416873 0.27607065
0.35610458 0.36669675 0.27508935
0.36580098 0.36262074 0.27590871
0.37634221 0.36075607 0.27542371
0.38463148 0.36074769 0.27549666
0.39601529 0.36213544 0.27478722
0.40333316 0.36494949 0.27488378
-0.0038396758 0.37509361 0.27595982
0.0042138579 0.37501132 0.27295229
0.036570281 0.37500539 0.27315581
0.045368843 0.37405255 0.27719605
0.35660008 0.37570834 0.2729902
0.36422837 0.37294269 0.27572632
0.39697441 0.37645972 0.2736384
0.40291467 0.37593648 0.27423167
-0.0042293072 0.38398975 0.27490777
0.0042411634 0.38609433 0.27431768
0.038366992 0.38369456 0.27423766
0.043797221 0.38523605 0.2761026
0.3573702 0.38477761 0.27688158
0.36420724 0.38483673 0.27459246
0.39666903 0.38417047 0.27500775
0.40396985 0.38550287 0.27495179
-0.0023903996 0.3945677 0.27591887
0.0032907932 0.39523357 0.27220082
0.016227111 0.39999974 0.27725595
0.029353723 0.39999986 0.27725595
0.036982249 0.39537889 0.27432805
0.045606792 0.39419889 0.27555436
0.35752153 0.39391962 0.27263793
0.36579403 0.39534101 0.27455461
0.3706463 0.3999998 0.27725595
0.38377297 0.39999974 0.27725595
0.39762458 0.39504889 0.27473402
0.40342161 0.39505467 0.27449554
-0.0026119251 0.40065429 0.2744728
0.005841854 0.40055236 0.27380601
0.013909067 0.4005172 0.27519235
0.025369607 0.40050384 0.27467906
0.034498654 0.40062588 0.27504709
0.043384545 0.40055454 0.27413154
0.35765991 0.40073615 0.27539861
0.36560169 0.40057376 0.27441117
0.37463081 0.40050241 0.2746751
0.38608649 0.40051737 0.27518722
0.39602584 0.40065145 0.27467459
0.40193781 0.40039966 0.27447894
-0.0032331874 0.00455637 0.28574187
0.0042589428 0.0040753442 0.28514409
0.014550156 0.00056744076 0.2855019
0.023791699 0.00059796806 0.28556854
0.034927789 0.0011919746 0.2849828
0.044009328 0.0031598185 0.28522828
0.35705981 0.0017886545 0.28306344
0.36461216 0.0022204486 0.28417176
0.3762151 0.00059877377 0.28557083
0.38545066 0.00056529819 0.28549781
0.39564413 0.0037940901 0.28512958
0.40353265 0.0046328795 0.28460246
-0.0036303066 0.015081601 0.28368634
0.0043965504 0.016348703 0.28559399
0.034148335 0.019215852 0.28678352
0.046088956 0.0151757 0.28408012
0.35549593 0.017925819 0.2842069
0.36530373 0.016954819 0.28341627
0.39448163 0.013040192 0.28184059
0.40319729 0.016803823 0.28486574
-0.0020418125 0.024176354 0.28523088
0.0033936168 0.0250871 0.28570357
0.038573682 0.024395952 0.28822887
0.0445446 0.025212759 0.28612471
0.35918766 0.029798388 0.28894144
0.36369962 0.025429582 0.28696069
0.39708489 0.023910934 0.28484166
0.40401149 0.026505966 0.28465897
-0.0039091292 0.035913099 0.28403854
0.0048318827 0.033869259 0.28546354
0.035633504 0.038437918 0.2869733
0.045139797 0.034713451 0.28425023
0.35949314 0.032197714 0.2804167
0.36548254 0.034663044 0.28532994
0.39652666 0.036040343 0.28311872
0.40344456 0.033140436 0.28515282
-0.0053748488 0.040954441 0.28857398
0.0062653897 0.040607259 0.28523231
0.012328865 0.040622178 0.28404897
0.026282128 0.040632591 0.28512961
0.034233496 0.040648159 0.28518489
0.042732324 0.040518861 0.28489861
0.35221791 0.040593266 0.28461075
0.36769009 0.040726747 0.2856746
0.37345183 0.040657181 0.28480649
0.38786396 0.040654376 0.28406087
0.39471599 0.040649801 0.28448156
0.40299699 0.04070425 0.28470331
-0.0032723607 0.36515364 0.28642493
0.0044211978 0.36251751 0.2859863
0.014677863 0.36069816 0.28577271
0.025976295 0.36071935 0.2850976
0.033426311 0.36170688 0.28507924
0.044109542 0.36387062 0.2852394
0.35711256 0.36250055 0.28316185
0.36569649 0.36345485 0.28468779
0.37402317 0.36072111 0.28510478
0.38538685 0.36073381 0.28599679
0.39540368 0.36341038 0.28537092
0.40383279 0.3636443 0.28527561
-0.0043513691 0.37528515 0.28519806
0.0039394768 0.37517762 0.28447294
0.036275487 0.37418556 0.28700408
0.047095135 0.37330446 0.28271574
0.35715669 0.37526292 0.28596726
0.36530918 0.37519601 0.28362834
0.39604446 0.37584299 0.28479427
0.40386298 0.37443334 0.28557995
-0.001795733 0.38222781 0.28514829
0.0038836016 0.38463542 0.28465441
0.036958918 0.38479683 0.28751796
0.045349974 0.38519001 0.28430417
0.35449243 0.3870694 0.28618246
0.36357552 0.38621593 0.28493133
0.39569747 0.38344368 0.2839807
0.40371028 0.38559172 0.28551152
-0.0031580694 0.39529973 0.28514546
0.003975247 0.39502361 0.28531373
0.036238622 0.39267135 0.28596988
0.044054061 0.39791837 0.28456923
0.35697475 0.39437971 0.28556964
0.3648437 0.39413333 0.28275812
0.39687374 0.39577058 0.2839036
0.40317237 0.39545727 0.28427574
-0.0014560502 0.40043983 0.28586194
0.0062296269 0.40053642 0.285218
0.015542786 0.40056604 0.28478146
0.024530269 0.40050709 0.28500655
0.033618391 0.40057829 0.28510815
0.043033667 0.4005425 0.28236473
0.35776412 0.40061277 0.28333402
0.36633337 0.4005869 0.28528705
0.37546891 0.40050682 0.28500792
0.38446006 0.4005636 0.28478459
0.39382395 0.40049529 0.28547949
0.40258366 0.40063983 0.28533244
-0.0029438867 0.0036116729 0.29518959
0.0051615951 0.0024588022 0.29494536
0.015275399 0.0005627374 0.29527202
0.024521401 0.00057384209 0.29512337
0.034866847 0.0017704049 0.29549643
0.04485663 0.0039903591 0.29403397
0.35534284 0.0033502842 0.29591057
0.3666352 0.0014401163 0.29613513
0.37548116 0.00056973263 0.2951223
0.38472554 0.00055962801 0.29527152
0.39492354 0.0021668682 0.29449624
0.40339974 0.0048669763 0.29626566
-0.0030768216 0.015420759 0.29684395
0.0043721013 0.016159432 0.29424268
0.034873109 0.016028514 0.29262444
0.044703037 0.015621339 0.29431018
0.35699111 0.016263068 0.29465169
0.36505011 0.014205799 0.29464179
0.39536572 0.014884536 0.29440713
0.40348312 0.016045548 0.29444006
-0.0046776026 0.026454585 0.29493394
0.0036002742 0.022668852 0.29598704
0.035805378 0.023207575 0.29534993
0.044581831 0.025008243 0.29453546
0.35538536 0.024331732 0.29617333
0.36609852 0.026631868 0.29601964
0.39561164 0.023857344 0.29486424
0.4040319 0.024861693 0.29535607
-0.0025990265 0.035887938 0.29500797
0.004646509 0.034895383 0.29436395
0.035836503 0.035493247 0.2941663
0.044233304 0.03462071 0.2961019
0.35723269 0.034833599 0.29478514
0.36492014 0.034118585 0.2931931
0.39624414 0.036891215 0.294792
0.4036682 0.035062738 0.29516739
0.0047247866 0.040611539 0.29451472
0.015246243 0.040670872 0.29475713
0.025576793 0.040655293 0.29433498
0.035164427 0.040600792 0.2947658
0.04514749 0.040742259 0.29540959
0.35998756 0.04085499 0.29008025
0.36531177 0.040615 0.29463631
0.37461969 0.040652402 0.29423836
0.38447616 0.040645808 0.29512715
0.39511868 0.040527694 0.29550681
0.40384999 0.040630318 0.29636964
-0.0042111124 0.36357942 0.29584405
0.0045625907 0.36314964 0.29533821
0.014205953 0.36074886 0.29567391
0.025242472 0.36073774 0.29515782
0.035655074 0.36145177 0.29526541
0.043421403 0.36347866 0.29508165
0.35613766 0.36302835 0.29547399
0.36475194 0.36205631 0.29466665
0.37476215 0.36073798 0.29515949
0.38578883 0.36075002 0.29567847
0.39607847 0.36182234 0.29643616
0.404268 0.36336303 0.29622257
-0.0045477869 0.37642989 0.29397163
0.0032276406 0.37475857 0.29372936
0.038599055 0.3764942 0.29638991
0.045017898 0.37483463 0.29416707
0.35636228 0.37473518 0.2948935
0.36515397 0.37503308 0.29556972
0.39630896 0.37661165 0.29511949
0.4032076 0.37430423 0.29573637
-0.0037832358 0.38287455 0.2956742
0.0030804772 0.38616499 0.29483745
0.033911936 0.38310832 0.29488832
0.043673903 0.38615602 0.29442215
0.3571443 0.38396794 0.29516232
0.36533347 0.38397214 0.29601085
0.39810571 0.38107738 0.29519433
0.40352848 0.38459527 0.29612368
-0.0036072026 0.39521936 0.29458439
0.0027525499 0.39695597 0.29442534
0.016227111 0.39999974 0.29038262
0.029353723 0.39999986 0.29038262
0.036189001 0.39452758 0.29622218
0.044967052 0.39422938 0.29433188
0.35496363 0.39472511 0.29273441
0.36489627 0.39515641 0.29509437
0.3706463 0.3999998 0.29038262
0.38377297 0.39999974 0.29038262
0.39651251 0.39518866 0.29520911
0.40318432 0.39521122 0.29544005
-0.0048396899 0.40063608 0.29643536
0.005111421 0.40046236 0.29501492
0.015120359 0.4005096 0.29513431
0.024751751 0.4005121 0.29502824
0.034864686 0.4005408 0.29510877
0.044419277 0.40064225 0.29630357
0.3576546 0.40036473 0.29147655
0.36504734 0.40056834 0.29540583
0.3752498 0.40051004 0.29502627
0.38488033 0.40050799 0.29513225
0.39538589 0.40048152 0.29576656
0.40195036 0.40052906 0.29209387
-0.0040319632 0.0050385813 0.30510569
0.0039336653 0.0027399389 0.30587992
0.015209964 0.00050262082 0.3051618
0.024875291 0.00061014964 0.30500317
0.034535039 0.0019796374 0.30502647
0.044088546 0.0042860764 0.30427212
0.35651219 0.0029462415 0.30339232
0.36499822 0.0025586954 0.30550086
0.37512854 0.00061064918 0.30500415
0.38479534 0.00050231349 0.30516574
0.39534843 0.0029072629 0.30500764
0.40276504 0.0031499735 0.30529118
-0.0011302829 0.016598336 0.30744517
0.0041491785 0.015820039 0.30533698
0.03468794 0.01517688 0.30713984
0.045877486 0.013956868 0.30602789
0.3562215 0.015207499 0.30898505
0.36641371 0.013669585 0.30449638
0.39505428 0.014798137 0.30634719
0.40214202 0.017062848 0.30397293
-0.0033530109 0.025399014 0.30441457
0.0027769422 0.024635296 0.30462041
0.036191791 0.026255745 0.30482656
0.044885289 0.026321052 0.30484384
0.35552171 0.02568401 0.30543792
0.36445853 0.026836121 0.30451086
0.39624059 0.025499625 0.30430955
0.40307382 0.024634302 0.30604634
-0.0037466979 0.038121197 0.30380026
0.0043325573 0.033315234 0.30594799
0.03562554 0.035861149 0.30739725
0.04644563 0.036105998 0.30403012
0.35443047 0.033016253 0.30293426
0.36486483 0.032887954 0.30410472
0.3966307 0.036376376 0.30641282
0.40263644 0.034799661 0.30493629
-0.0036133018 0.040734351 0.30330193
0.0056503532 0.040680025 0.30506396
0.01532228 0.040581577 0.30493671
0.024919102 0.040705834 0.30464321
0.035225816 0.040698644 0.30612239
0.04259431 0.040634558 0.30468434
0.35915339 0.040764332 0.30465135
0.36598083 0.04062048 0.30618533
0.37488988 0.040706057 0.30464348
0.38467741 0.04058262 0.30493703
0.39341447 0.040680133 0.30473879
0.4021754 0.040685564 0.30549034
-0.0032163197 0.36645481 0.30485138
0.0053054718 0.36263973 0.30552712
0.014452634 0.36083412 0.30519423
0.024189962 0.36069989 0.30514044
0.034193613 0.36161596 0.30500075
0.043689344 0.3636978 0.30427912
0.35682607 0.36032796 0.3007459
0.36599094 0.36319992 0.30514666
0.37574837 0.36073735 0.30548936
0.38520378 0.36077186 0.30486488
0.39519083 0.3626973 0.30561391
0.40218717 0.36394656 0.30436257
-0.0024617314 0.37319222 0.30692399
0.0038907151 0.37661976 0.3057586
0.037470259 0.37342438 0.30557367
0.046827514 0.37478912 0.30551943
0.35809243 0.37596416 0.30435294
0.36530972 0.37504596 0.30536038
0.3960216 0.37662035 0.30525774
0.40327489 0.37405059 0.30513337
-0.0034141988 0.38503915 0.30594698
0.0039841542 0.38567868 0.30654746
0.0372127 0.38630915 0.3066504
0.044700786 0.38452753 0.3059279
0.35677239 0.38244981 0.30599219
0.36458412 0.3832351 0.30454558
0.3966459 0.38207698 0.30369693
0.40366447 0.38639903 0.30548576
-0.0022280433 0.39570239 0.30559084
0.0037651442 0.39440644 0.30536884
0.016227111 0.39999974 0.30350927
0.029353723 0.39999986 0.30350927
0.037923902 0.39379767 0.30405492
0.044190925 0.39546469 0.30503294
0.35721907 0.3943429 0.30419758
0.36633238 0.39336067 0.30637604
0.3706463 0.3999998 0.30350927
0.38377297 0.39999974 0.30350927
0.39637321 0.3957805 0.30421463
0.40204009 0.39570141 0.30503827
-0.0022219904 0.40051955 0.30573457
0.0060537998 0.40049627 0.30580974
0.015198071 0.40055841 0.3057541
0.025426203 0.40048593 0.30467033
0.033817131 0.4006049 0.30567968
0.044566687 0.40043879 0.30502528
0.35794413 0.400695 0.30610415
0.36627319 0.40058348 0.30557042
0.37457773 0.40048215 0.30466712
0.38480273 0.40055877 0.30575392
0.39372635 0.40052173 0.30601054
0.4027867 0.40050784 0.30510691
-0.0031429841 0.0042792517 0.31444743
0.0046005161 0.0022686061 0.31439617
0.014599754 0.00059976894 0.31620902
0.024117226 0.00054101995 0.31490213
0.034602273 0.001871274 0.31458932
0.044412334 0.0037527916 0.31543192
0.35636261 0.001621958 0.31552657
0.36568427 0.0018387589 0.31548554
0.37588909 0.00053688796 0.31490824
0.38539854 0.00059914961 0.31620702
0.39574686 0.0034081335 0.31586036
0.40431842 0.003715921 0.31455842
-0.0026085335 0.015733054 0.31257698
0.0044965879 0.015917711 0.31526607
0.044360496 0.015638702 0.31483629
0.35658717 0.016849631 0.3150709
0.36443484 0.015458375 0.31540465
0.39803064 0.014873276 0.31438288
0.40397432 0.016490892 0.31455064
-0.0046857418 0.02447471 0.31476405
0.0027305698 0.024200631 0.31600392
0.036607385 0.023118144 0.31305775
0.044219688 0.026757404 0.31660837
0.35580853 0.02449622 0.31926537
0.3654446 0.026760552 0.31520551
0.39653113 0.02455736 0.31547955
0.40335241 0.025338745 0.31410787
-0.0035138726 0.035451271 0.31408331
0.0042621735 0.033431433 0.31492272
0.037656486 0.036517777 0.31308681
0.045134805 0.033269461 0.31386331
0.35592726 0.036197685 0.31626838
0.36582077 0.034567941 0.31450635
0.39601848 0.038240742 0.31556252
0.40383092 0.032774832 0.31472003
-0.0017502606 0.040467277 0.31778052
0.0065668523 0.040732298 0.3149201
0.015546864 0.040673524 0.31505597
0.025386788 0.04061494 0.31475869
0.033580858 0.040528893 0.31337461
0.043275889 0.040638655 0.31550235
