# .PCD v0.7 - Point Cloud Data file format
VERSION 0.7
FIELDS x y z normal_x normal_y normal_z curvature
SIZE 4 4 4 4 4 4 4
TYPE F F F F F F F
COUNT 1 1 1 1 1 1 1
WIDTH 670
HEIGHT 1
VIEWPOINT 0 0 0 1 0 0 0
POINTS 670
DATA ascii
-0.084652387 0.16513272 0.41085356 -0.0084336177 0.086749092 0.99619454 0
-0.074978821 0.16486867 0.41095847 -0.0084335497 0.086749509 0.99619442 0
-0.064936541 0.16561621 0.41097835 -0.0084334742 0.086750053 0.99619442 0
-0.056089818 0.16606693 0.41094604 -0.0083228294 0.20964858 0.97774136 0
-0.045695137 0.16564271 0.41113895 -0.0084333885 0.086750612 0.99619436 0
-0.035733428 0.16388257 0.4113766 -0.0084333904 0.086750619 0.99619442 0
-0.023716655 0.16445437 0.41141763 -0.008390341 0.15282686 0.98821735 0
-0.01507159 0.16593841 0.4113099 -0.0082584182 0.24935071 0.96837801 0
-0.0043303124 0.16443001 0.41154805 -0.0081977732 0.28044453 0.95983523 0
0.003213936 0.16561267 0.41143924 -0.0080927387 0.32578447 0.94540948 0
0.016111771 0.16475411 0.41173959 -0.0084333885 0.086750612 0.99619436 0
0.024862343 0.16646837 0.41152605 -0.0080927368 0.32578439 0.94540942 0
0.035526659 0.16493611 0.41184008 -0.0083655892 0.17658916 0.98424917 0
0.044717964 0.16552366 0.41168302 -0.0082318252 0.26356384 0.96460682 0
0.054757852 0.16480792 0.41201553 -0.0083655892 0.17658916 0.98424917 0
0.064890563 0.16762169 0.41161123 -0.0073791905 0.52312809 0.85222214 0
0.076514736 0.16443181 0.41227895 -0.0084333885 0.086750612 0.99619436 0
0.085870594 0.16728075 0.41202247 -0.0070430418 0.58695471 0.80958915 0
0.095994517 0.1676414 0.41206554 -0.0076941354 0.45054251 0.89272183 0
0.10574279 0.16584036 0.4121879 -0.008135044 0.30854309 0.95117557 0
0.11579339 0.16545592 0.41218388 -0.0077677863 0.43103233 0.90230298 0
0.12527117 0.16612245 0.4121789 -0.0076071806 0.47217733 0.88147068 0
0.13311093 0.16683833 0.41225749 -0.0077677863 0.4310323 0.9023031 0
0.14201796 0.16436419 0.41365016 -0.80557472 0.15982784 -0.57052988 0
0.15497538 0.16623972 0.41184974 0 0.40013799 -0.91645497 0
0.16458642 0.16627553 0.4118582 0 0.44392914 -0.8960619 0
0.17011 0.16441216 0.41391906 1 0 0 0
-0.15505433 0.17041735 0.41694435 0 0.98639411 -0.16439785 0
-0.14523388 0.17053127 0.41762784 0 0.98639411 -0.16439785 0
-0.13457772 0.17048737 0.41736436 0 0.98639411 -0.16439787 0
-0.12987998 0.17054102 0.41901603 1 0 0 0
0.14477062 0.17045133 0.41656908 0 0.98639411 -0.1643979 0
0.15757762 0.17036991 0.41608071 0 0.98639411 -0.1643979 0
0.16560419 0.17056333 0.41724116 0 0.98639411 -0.1643979 0
0.17011 0.17007957 0.41493568 1 0 0 0
-0.18669894 -0.22748777 0.42476609 -0.57668316 -0.81696784 -8.3957119e-08 0
-0.17542502 -0.22993803 0.4242658 0 -1 -1.0276672e-07 0
-0.16403161 -0.22993806 0.42468834 0 -1 -1.0276671e-07 0
-0.15825576 -0.22401553 0.42606702 0.70710677 -0.70710677 -3.5122372e-07 0
-0.14474121 -0.22493805 0.42576101 0 -1 -4.9670535e-07 0
-0.13568197 -0.22493804 0.42505899 0 -1 -4.9670541e-07 0
-0.12484127 -0.22493805 0.42641124 0 -1 -4.9670541e-07 0
-0.11466551 -0.22493801 0.42486638 0 -1 -4.9670541e-07 0
-0.10489476 -0.22493804 0.42156875 0 -1 -4.9670535e-07 0
-0.094761878 -0.22493806 0.42541885 0 -1 -4.9670541e-07 0
-0.086124167 -0.22493805 0.42501616 0 -1 -4.9670541e-07 0
-0.074876621 -0.22493806 0.42622614 0 -1 -4.9670541e-07 0
-0.065303244 -0.22493805 0.42324272 0 -1 -4.9670541e-07 0
-0.055016711 -0.22493808 0.42486832 0 -1 -4.9670541e-07 0
-0.045112837 -0.22493804 0.42526504 0 -1 -4.9670535e-07 0
-0.035505489 -0.22493802 0.42477706 0 -1 -4.9670541e-07 0
-0.024988977 -0.22493806 0.42560625 0 -1 -4.9670541e-07 0
-0.013792652 -0.22493804 0.42402896 0 -1 -4.9670535e-07 0
-0.0054271538 -0.22493801 0.42368451 0 -1 -4.9670541e-07 0
0.0058361404 -0.22493806 0.42425054 0 -1 -4.9670541e-07 0
0.016149543 -0.22493805 0.42532846 0 -1 -4.9670535e-07 0
0.024240112 -0.22493804 0.42620468 0 -1 -4.9670535e-07 0
0.034493003 -0.22493802 0.42467272 0 -1 -4.9670535e-07 0
0.045708708 -0.22493805 0.42463928 0 -1 -4.9670535e-07 0
0.055960141 -0.22493806 0.42657247 0 -1 -4.9670541e-07 0
0.064323507 -0.22493808 0.4237031 0 -1 -4.9670541e-07 0
0.074181497 -0.22493804 0.42478293 0 -1 -4.9670535e-07 0
0.085061282 -0.22493805 0.42360711 0 -1 -4.9670535e-07 0
0.094127223 -0.22493806 0.42423004 0 -1 -4.9670541e-07 0
0.10483088 -0.22493804 0.42476192 0 -1 -4.9670541e-07 0
0.11550537 -0.22493805 0.42490175 0 -1 -4.9670541e-07 0
0.12555952 -0.22493805 0.42376554 0 -1 -4.9670535e-07 0
0.1349937 -0.22493805 0.42538419 0 -1 -4.9670541e-07 0
0.14381535 -0.22493801 0.42498875 0 -1 -4.9670541e-07 0
0.15488087 -0.22493808 0.42532656 0 -1 -4.9670541e-07 0
0.16479217 -0.22493804 0.42676029 0 -1 -4.9670535e-07 0
0.1713659 -0.22625008 0.42516428 -0.31622776 -0.94868326 -1.2863667e-07 0
0.18404506 -0.22993803 0.42454579 0 -1 -1.0276672e-07 0
0.19563109 -0.22993805 0.42534402 0 -1 -1.0276672e-07 0
0.20007099 -0.22629464 0.4268637 1 0 0 0
-0.18992901 -0.21543217 0.42420012 -1 0 0 0
-0.15992902 -0.21431935 0.42504928 -1 0 0 0
0.17007105 -0.21371552 0.42474467 1 0 0 0
0.20007099 -0.21521965 0.42469186 1 0 0 0
-0.18992899 -0.20432115 0.42452684 -1 0 0 0
-0.17426449 -0.20146064 0.42578384 -0.092353821 -0.99193633 0.086793154 0
-0.16656289 -0.20181836 0.42283177 0.36269549 -0.92836064 0.081230447 0
-0.15867136 -0.20668571 0.42525375 0.70710683 0.70710683 3.5122372e-07 0
-0.14376351 -0.20493801 0.42430207 0 1 4.9670541e-07 0
-0.13424924 -0.20493801 0.42602542 0 1 4.9670541e-07 0
-0.12518845 -0.20493802 0.42483908 0 1 4.9670541e-07 0
-0.11544447 -0.20493801 0.42408186 0 1 4.9670541e-07 0
-0.10468572 -0.20493804 0.4244054 0 1 4.9670535e-07 0
-0.095030598 -0.20493799 0.42494246 0 1 4.9670541e-07 0
-0.084857069 -0.20493804 0.42556691 0 1 4.9670541e-07 0
-0.074755982 -0.20493802 0.42583597 0 1 4.9670541e-07 0
-0.066461563 -0.20493804 0.4260315 0 1 4.9670535e-07 0
-0.056546066 -0.20493804 0.42425087 0 1 4.9670535e-07 0
-0.044612512 -0.20493804 0.42541346 0 1 4.9670535e-07 0
-0.034442626 -0.20493801 0.42435408 0 1 4.9670541e-07 0
-0.025198922 -0.20493804 0.42354098 0 1 4.9670535e-07 0
-0.015754638 -0.20493799 0.42577162 0 1 4.9670541e-07 0
-0.0053081918 -0.20493799 0.42473188 0 1 4.9670541e-07 0
0.0046988376 -0.20493805 0.42576972 0 1 4.9670541e-07 0
0.015236857 -0.20493804 0.42433861 0 1 4.9670541e-07 0
0.02477736 -0.20493804 0.42434281 0 1 4.9670535e-07 0
0.036146317 -0.20493802 0.42565238 0 1 4.9670541e-07 0
0.04664588 -0.20493804 0.42609918 0 1 4.9670535e-07 0
0.055369359 -0.20493802 0.42535171 0 1 4.9670541e-07 0
0.064716816 -0.20493802 0.42460018 0 1 4.9670541e-07 0
0.074820124 -0.20493804 0.42644754 0 1 4.9670535e-07 0
0.085674763 -0.20493801 0.42393497 0 1 4.9670541e-07 0
0.095554382 -0.20493801 0.42442319 0 1 4.9670541e-07 0
0.10556677 -0.20493801 0.4251067 0 1 4.9670541e-07 0
0.11507292 -0.20493802 0.4250119 0 1 4.9670541e-07 0
0.1244963 -0.20493801 0.42428175 0 1 4.9670541e-07 0
0.13356319 -0.20493804 0.42551428 0 1 4.9670535e-07 0
0.14542194 -0.20493802 0.42425942 0 1 4.9670535e-07 0
0.15396632 -0.20493804 0.42244008 0 1 4.9670535e-07 0
0.16371652 -0.20493804 0.42690915 0 1 4.9670535e-07 0
0.17328188 -0.20442489 0.42463595 -0.28569919 -0.95467156 0.083535455 0
0.18480851 -0.2016643 0.42598277 0.090647429 -0.99209225 0.086809762 0
0.19212599 -0.20122112 0.42340657 0.090647407 -0.99209231 0.086809747 0
0.20007099 -0.20543876 0.42520276 1 0 0 0
-0.18523179 -0.19861993 0.42435163 -0.40338224 0.91502571 -0.0032616912 0
-0.17561983 -0.19993806 0.42605302 0 1 1.0276673e-07 0
-0.16531527 -0.19752218 0.42500642 0.70866287 0.70552397 0.0057304185 0
0.17517589 -0.19774473 0.4243753 -0.60527068 0.79600525 0.0048018321 0
0.18560173 -0.19993806 0.42275369 0 1 1.0276673e-07 0
0.19483925 -0.19638249 0.4241105 0.89714599 0.44167686 -0.0071169524 0
-0.18378763 -0.18572557 0.42467675 -0.99572468 0.092019036 -0.00805151 0
-0.16359176 -0.18454351 0.42451975 0.99572474 -0.092019036 0.0080516469 0
0.17376491 -0.18612115 0.42563438 -0.99588412 -0.090290338 0.0079005659 0
0.19376968 -0.18535683 0.42463097 0.99588442 0.090287134 -0.0079002753 0
-0.19403517 -0.17926361 0.42987895 0.0084392671 -0.086747028 -0.99619466 0
-0.18364814 -0.17479829 0.42649522 -0.90915334 0.04908932 -0.4135581 0
-0.17444366 -0.17416026 0.42953932 0.018967595 0.088053875 0.99593514 0
-0.16408014 -0.1750365 0.42774025 0.97228009 -0.070386618 0.22297353 0
-0.15495312 -0.17619768 0.42994249 0.008433315 -0.08674527 -0.99619484 0
-0.14465304 -0.17223896 0.429685 0.008433315 -0.08674527 -0.99619484 0
-0.13270359 -0.17213824 0.42977732 0.008433314 -0.08674527 -0.99619484 0
-0.12685783 -0.17237221 0.42984715 0.008433315 -0.08674527 -0.99619484 0
-0.11936221 -0.17330369 0.42999178 0.008433315 -0.08674527 -0.99619484 0
0.17281309 -0.17565191 0.4253009 -0.99588418 -0.090290345 0.0079005659 0
0.19287641 -0.17551181 0.42453927 0.99588442 0.090287134 -0.0079002753 0
-0.19122915 -0.16515158 0.42867357 0.0083115166 -0.086733043 -0.99619693 0
-0.18296841 -0.16438411 0.42615148 -0.69980258 0.0038620573 -0.7143259 0
-0.17488298 -0.1652523 0.42877224 0.12555327 -0.080409907 -0.98882288 0
-0.16390663 -0.16477673 0.42675853 0.9114067 -0.11815327 -0.39417964 0
-0.15474112 -0.16596498 0.42905331 0.0084333131 -0.08674527 -0.99619484 0
-0.14484449 -0.16416183 0.42897999 0.008433314 -0.08674527 -0.99619484 0
-0.13474971 -0.16349177 0.42900714 0.008433314 -0.08674527 -0.99619484 0
-0.12651464 -0.16542181 0.42924482 0.0084333131 -0.08674527 -0.99619484 0
-0.11529909 -0.1658742 0.42937922 0.008433314 -0.08674527 -0.99619484 0
-0.10494082 -0.16564797 0.4294472 0.0084333131 -0.08674527 -0.99619484 0
-0.09542542 -0.1656172 0.42952508 0.008433314 -0.08674527 -0.99619484 0
-0.084441371 -0.16490391 0.42955595 0.008433315 -0.08674527 -0.99619484 0
-0.076091073 -0.16433145 0.42957681 0.008433314 -0.08674527 -0.99619484 0
-0.065469019 -0.16479506 0.42970711 0.0084333131 -0.08674527 -0.99619484 0
-0.05451614 -0.164239 0.42975143 0.008433314 -0.08674527 -0.99619484 0
-0.045996554 -0.16205227 0.42963314 0.008433315 -0.08674527 -0.99619484 0
-0.035690576 -0.16105373 0.42963341 0.008433315 -0.08674527 -0.99619484 0
-0.025449988 -0.16186044 0.42979035 0.008433314 -0.08674527 -0.99619484 0
-0.016500741 -0.16199508 0.42987782 0.008433315 -0.08674527 -0.99619484 0
-0.0094475588 -0.1612343 0.42987129 0.008433315 -0.08674527 -0.99619484 0
0.00050130114 -0.1600537 0.42985266 0.008433315 -0.08674527 -0.99619484 0
0.17170858 -0.16353998 0.42449582 -0.99588418 -0.090290345 0.0079005659 0
0.19200014 -0.16576071 0.42551747 0.99588442 0.090287209 -0.0078997817 0
-0.19090408 -0.15678564 0.42794782 0.008479394 -0.086750142 -0.99619406 0
-0.18339306 -0.15513429 0.42589951 -0.76270437 0.015224365 -0.64656806 0
-0.17458369 -0.15514755 0.42788053 0.022478279 0.088216811 0.99584764 0
-0.16390109 -0.15472551 0.42687306 0.96679354 -0.10868649 -0.23129538 0
-0.15640113 -0.15504253 0.4280881 0.008433314 -0.08674527 -0.99619484 0
-0.14424427 -0.1545126 0.42814484 0.008433314 -0.08674527 -0.99619484 0
-0.13578337 -0.15481287 0.42824265 0.008433314 -0.08674527 -0.99619484 0
-0.12469032 -0.15437454 0.42829835 0.008433314 -0.08674527 -0.99619484 0
-0.11568169 -0.15477449 0.42840946 0.0084333131 -0.08674527 -0.99619484 0
-0.10548711 -0.15383261 0.42841375 0.008433314 -0.08674527 -0.99619484 0
-0.095961183 -0.15683196 0.42875558 0.008433314 -0.08674527 -0.99619484 0
-0.084542871 -0.15518089 0.42870846 0.0084333131 -0.08674527 -0.99619484 0
-0.076194689 -0.15364689 0.42864555 0.008433314 -0.08674527 -0.99619484 0
-0.063562907 -0.15491797 0.42886317 0.008433314 -0.08674527 -0.99619484 0
-0.0540266 -0.15492825 0.42894477 0.008433314 -0.08674527 -0.99619484 0
-0.044267382 -0.15546869 0.42907447 0.008433314 -0.08674527 -0.99619484 0
-0.035078779 -0.15423349 0.42904472 0.008433314 -0.08674527 -0.99619484 0
-0.025552241 -0.1544991 0.42914847 0.008433314 -0.08674527 -0.99619484 0
-0.014308548 -0.15469435 0.42926067 0.0084333131 -0.086745262 -0.99619472 0
-0.0039461441 -0.15507032 0.42938116 0.008433314 -0.08674527 -0.99619484 0
0.006013413 -0.15416946 0.429387 0.008433314 -0.08674527 -0.99619484 0
0.015399499 -0.15494461 0.42953396 0.008433314 -0.08674527 -0.99619484 0
0.024371833 -0.15626319 0.42972469 0.0084333131 -0.08674527 -0.99619484 0
0.036308836 -0.15466826 0.42968687 0.008433314 -0.08674527 -0.99619484 0
0.044693425 -0.15450807 0.42974395 0.008433314 -0.08674527 -0.99619484 0
0.057074104 -0.15190436 0.42962202 0.008433314 -0.08674527 -0.99619484 0
0.062657729 -0.15375914 0.42983079 0.008433314 -0.08674527 -0.99619484 0
0.075161576 -0.15207054 0.42978957 0.008433314 -0.08674527 -0.99619484 0
0.088143468 -0.15130657 0.42983297 0.008433315 -0.08674527 -0.99619484 0
0.10288405 -0.1510722 0.42993736 0.008433315 -0.08674527 -0.99619484 0
0.11837985 -0.15011671 0.42998528 0.0084259957 -0.086752445 -0.9961943 0
0.17089015 -0.15450594 0.42457464 -0.99588412 -0.090290338 0.0079005659 0
0.19091639 -0.15381417 0.42543411 0.99588436 0.09028735 -0.0078991996 0
-0.19155651 -0.14429045 0.42827016 -0.99523675 0.096037842 -0.016750006 0
-0.18324365 -0.1477409 0.42524245 -0.85261929 0.034397982 -0.52139926 0
-0.17399965 -0.14579579 0.42692441 -0.42369914 0.12176659 0.8975811 0
-0.16306691 -0.145034 0.42655751 0.99608958 -0.088002808 0.0078220945 0
-0.15546493 -0.14507243 0.42679131 0.23229283 -0.10497737 -0.96696419 0
-0.14544788 -0.14488035 0.42729592 0.008433314 -0.08674527 -0.99619484 0
-0.134703 -0.14516729 0.42741191 0.008433314 -0.08674527 -0.99619484 0
-0.1248057 -0.14579074 0.42754996 0.008433314 -0.08674527 -0.99619484 0
-0.11489367 -0.14554122 0.42761216 0.008433314 -0.08674527 -0.99619484 0
-0.10614144 -0.14481668 0.42762315 0.008433314 -0.08674527 -0.99619484 0
-0.095346145 -0.14620721 0.42783561 0.008433314 -0.08674527 -0.99619484 0
-0.084520273 -0.14483041 0.42780736 0.008433314 -0.08674527 -0.99619484 0
-0.074395344 -0.14608654 0.42800245 0.008433314 -0.08674527 -0.99619484 0
-0.066237248 -0.14647606 0.42810544 0.008433314 -0.08674527 -0.99619484 0
-0.055140693 -0.14471012 0.42804563 0.0084333131 -0.08674527 -0.99619484 0
-0.046074826 -0.14533709 0.42817694 0.0084333131 -0.08674527 -0.99619484 0
-0.034555573 -0.14438874 0.42819187 0.008433314 -0.08674527 -0.99619484 0
-0.025356332 -0.14605428 0.42841479 0.0084333131 -0.08674527 -0.99619484 0
-0.01389756 -0.14524725 0.42844149 0.008433314 -0.08674527 -0.99619484 0
-0.0053133918 -0.14462946 0.42846042 0.008433314 -0.08674527 -0.99619484 0
0.0061280495 -0.14518157 0.42860532 0.008433314 -0.08674527 -0.99619484 0
0.015179479 -0.14603178 0.42875603 0.0084333131 -0.08674527 -0.99619484 0
0.024578324 -0.14429845 0.42868465 0.008433314 -0.08674527 -0.99619484 0
0.034917146 -0.14551218 0.4288778 0.008433314 -0.08674527 -0.99619484 0
0.045955386 -0.14377455 0.42882001 0.0084333131 -0.08674527 -0.99619484 0
0.054876134 -0.14752604 0.4292222 0.008433314 -0.08674527 -0.99619484 0
0.06473355 -0.14424257 0.42901969 0.008433314 -0.08674527 -0.99619484 0
0.073946498 -0.14406988 0.42908266 0.008433314 -0.08674527 -0.99619484 0
0.085949123 -0.1448468 0.42925191 0.0084333131 -0.086745262 -0.99619472 0
0.095010713 -0.1447815 0.4293229 0.008433314 -0.08674527 -0.99619484 0
0.1047833 -0.14456321 0.42938665 0.0084308749 -0.086747654 -0.9961946 0
0.11458308 -0.14555946 0.42955628 0.0084284721 -0.086750239 -0.99619442 0
0.12613638 -0.1435032 0.42947501 0.0084334239 -0.086745851 -0.99619478 0
0.1351395 -0.14398772 0.42959347 0.0084334239 -0.086745843 -0.99619472 0
0.14429727 -0.14480814 0.42974246 0.0084334239 -0.086745851 -0.99619478 0
0.15590723 -0.14345582 0.42972293 0.0084334239 -0.086745843 -0.99619472 0
0.16617201 -0.14312482 0.42758042 -0.43931499 -0.11836704 -0.89050072 0
0.17281105 -0.14465764 0.42777643 -0.88996953 -0.041738108 0.45410597 0
0.18658136 -0.14162555 0.42757195 0.92554152 0.051466148 -0.3751322 0
0.19116271 -0.14524959 0.42656332 0.94505739 0.058075786 -0.32170439 0
0.20096122 -0.14203331 0.42998055 0.0084462902 -0.086745448 -0.99619472 0
-0.19066107 -0.13497251 0.42849094 -0.99523652 0.096036658 -0.016769851 0
-0.18588324 -0.1344758 0.42604777 0.0082866624 -0.086732522 -0.99619722 0
-0.17480098 -0.13511123 0.42564401 -0.49933609 -0.026783921 -0.86599427 0
-0.16450769 -0.13438642 0.42611447 0.075850695 0.090544201 0.99299973 0
-0.15747331 -0.13441999 0.42576054 0.35827085 -0.11304741 -0.92674822 0
-0.1454858 -0.13478316 0.42641637 0.008433314 -0.08674527 -0.99619484 0
-0.13478827 -0.13537383 0.42655838 0.008433314 -0.08674527 -0.99619484 0
-0.1234061 -0.13586101 0.42669716 0.008433314 -0.08674527 -0.99619484 0
-0.11538479 -0.13356483 0.42656508 0.0084333131 -0.08674527 -0.99619484 0
-0.10406499 -0.13595726 0.4268693 0.008433314 -0.08674527 -0.99619484 0
-0.093929462 -0.13404742 0.42678878 0.0084333131 -0.08674527 -0.99619484 0
-0.084692195 -0.13521224 0.42696843 0.008433314 -0.08674527 -0.99619484 0
-0.073386542 -0.13515513 0.42705914 0.008433314 -0.08674527 -0.99619484 0
-0.065345064 -0.13486497 0.42710197 0.008433314 -0.08674527 -0.99619484 0
-0.055915777 -0.13463157 0.42716143 0.008433314 -0.08674527 -0.99619484 0
-0.045579389 -0.13481309 0.42726478 0.0084333131 -0.08674527 -0.99619484 0
-0.032806203 -0.13411057 0.42731169 0.008433314 -0.08674527 -0.99619484 0
-0.026709961 -0.1361158 0.42753792 0.0084333131 -0.08674527 -0.99619484 0
-0.013342502 -0.13671018 0.42770284 0.008433314 -0.08674527 -0.99619484 0
-0.0038551502 -0.1345316 0.42759344 0.0084333131 -0.08674527 -0.99619484 0
0.0027106509 -0.13470665 0.42766428 0.008433314 -0.08674527 -0.99619484 0
0.015154161 -0.13628373 0.42790693 0.008433314 -0.08674527 -0.99619484 0
0.024919469 -0.1345699 0.42784038 0.008433314 -0.08674527 -0.99619484 0
0.034479603 -0.1342317 0.42789185 0.008433314 -0.08674527 -0.99619484 0
0.044471368 -0.13400899 0.42795706 0.008433314 -0.08674527 -0.99619484 0
0.054990228 -0.13498609 0.42813119 0.0084333131 -0.08674527 -0.99619484 0
0.064915948 -0.13562074 0.42827049 0.008433314 -0.08674527 -0.99619484 0
0.074377574 -0.13703889 0.42847404 0.008433314 -0.08674527 -0.99619484 0
0.084195666 -0.13384579 0.42827913 0.0084333131 -0.08674527 -0.99619484 0
0.09482073 -0.13544525 0.42850831 0.0084312232 -0.086747319 -0.99619472 0
0.10570298 -0.13524784 0.42858323 0.0084297098 -0.086749136 -0.99619454 0
0.11543375 -0.13445328 0.42859647 0.0084334239 -0.086745851 -0.99619478 0
0.12569642 -0.13523671 0.4287515 0.0084334239 -0.086745851 -0.99619478 0
0.13478909 -0.13465664 0.42877802 0.0084334239 -0.086745851 -0.99619478 0
0.14523427 -0.13421485 0.42882788 0.0084334239 -0.086745851 -0.99619478 0
0.15526359 -0.13355006 0.42885494 0.0084334239 -0.086745836 -0.99619472 0
0.16622698 -0.13579971 0.42713076 -0.74670714 -0.12563583 -0.65318 0
0.17480603 -0.1349387 0.4292511 0.01966897 0.088087462 0.99591851 0
0.18664223 -0.13407058 0.42652091 0.99438107 0.085160345 -0.062881365 0
0.19416705 -0.13541317 0.4293465 0.0084373998 -0.086746037 -0.99619478 0
0.20038934 -0.13297603 0.429187 0.0084462902 -0.086745448 -0.99619472 0
-0.19013326 -0.12938142 0.42918277 -0.99523562 0.096031949 -0.016849224 0
-0.18469416 -0.12588093 0.42552724 -0.15532237 -0.069775604 -0.98539656 0
-0.17574255 -0.12585677 0.42480564 -0.69566727 0.004285289 -0.71835142 0
-0.1648501 -0.12501752 0.42529446 0.092623785 0.091220945 0.99151379 0
-0.15618724 -0.12477787 0.42395329 0.707528 -0.12576413 -0.69540453 0
-0.14533828 -0.12572782 0.42562911 0.008433314 -0.08674527 -0.99619484 0
-0.13450231 -0.12545012 0.42569673 0.008433314 -0.08674527 -0.99619484 0
-0.12447104 -0.12709959 0.4259252 0.008433314 -0.08674527 -0.99619484 0
-0.11556162 -0.12549344 0.42586082 0.0084333131 -0.08674527 -0.99619484 0
-0.1056214 -0.12340534 0.42576313 0.008433314 -0.08674527 -0.99619484 0
-0.094043098 -0.124283 0.42593756 0.008433314 -0.08674527 -0.99619484 0
-0.086123347 -0.12353282 0.42593929 0.0084333131 -0.08674527 -0.99619484 0
-0.074676573 -0.12426691 0.42610011 0.008433314 -0.08674527 -0.99619484 0
-0.064774863 -0.12539661 0.42628232 0.008433314 -0.08674527 -0.99619484 0
-0.055614717 -0.12393241 0.42623237 0.008433314 -0.08674527 -0.99619484 0
-0.044935025 -0.12627873 0.42652708 0.008433314 -0.08674527 -0.99619484 0
-0.034590781 -0.12503578 0.42650643 0.008433314 -0.08674527 -0.99619484 0
-0.024857378 -0.12592307 0.42666605 0.008433314 -0.08674527 -0.99619484 0
-0.016194416 -0.12458161 0.4266226 0.0084333131 -0.08674527 -0.99619484 0
-0.0052614911 -0.12285461 0.42656472 0.008433314 -0.08674527 -0.99619484 0
0.0042885877 -0.12504691 0.42683649 0.008433314 -0.08674527 -0.99619484 0
0.013312559 -0.12436891 0.42685387 0.008433314 -0.08674527 -0.99619484 0
0.025862157 -0.12537321 0.42704755 0.008433314 -0.08674527 -0.99619484 0
0.035252802 -0.12505032 0.42709893 0.008433314 -0.08674527 -0.99619484 0
0.046164472 -0.12536991 0.42721918 0.0084333131 -0.08674527 -0.99619484 0
0.054184552 -0.1243219 0.42719579 0.0084333131 -0.08674527 -0.99619484 0
0.066639945 -0.12502855 0.42736277 0.008433314 -0.08674527 -0.99619484 0
0.074845657 -0.12600927 0.42751762 0.008433314 -0.08674527 -0.99619484 0
0.085105039 -0.12507114 0.42752275 0.0084305704 -0.086747967 -0.99619466 0
0.095757343 -0.12510307 0.42761567 0.008428649 -0.086750083 -0.99619442 0
0.10471518 -0.12588254 0.42775935 0.0084334239 -0.086745843 -0.99619472 0
0.11458097 -0.12491377 0.42775851 0.0084334239 -0.086745843 -0.99619472 0
0.12386376 -0.12453378 0.42780408 0.0084334249 -0.086745858 -0.99619484 0
0.13251062 -0.12610082 0.42801365 0.0084334239 -0.086745836 -0.99619472 0
0.14473329 -0.12382954 0.42791933 0.0084334239 -0.086745851 -0.99619478 0
0.15539393 -0.12483167 0.42809689 0.0084334239 -0.086745851 -0.99619478 0
0.16627103 -0.12431983 0.42674884 -0.70081979 -0.1257451 -0.70216793 0
0.17458203 -0.1238608 0.42823547 0.016864575 -0.086329907 -0.99612391 0
0.18614046 -0.12512724 0.42714125 0.9259786 0.051468518 -0.37405157 0
0.19451024 -0.12506078 0.42846775 0.10743546 -0.076686643 -0.99125016 0
-0.18663235 -0.1153801 0.42567098 -0.43742272 -0.034655433 -0.898588 0
-0.17514613 -0.11479584 0.4237442 -0.91371208 0.12030961 0.38814399 0
-0.16600269 -0.11572564 0.42447725 0.050544307 0.089478463 0.99470538 0
-0.15512328 -0.11416254 0.42368686 0.4513382 -0.11834447 -0.8844707 0
-0.14454851 -0.11456625 0.4246639 0.008433314 -0.08674527 -0.99619484 0
-0.13512863 -0.11414542 0.424707 0.008433314 -0.08674527 -0.99619484 0
-0.1250917 -0.11388696 0.42476943 0.0084333131 -0.08674527 -0.99619484 0
-0.11524431 -0.11388844 0.42485294 0.008433314 -0.08674527 -0.99619484 0
-0.10568797 -0.11511739 0.4250409 0.008433314 -0.08674527 -0.99619484 0
-0.096007936 -0.11479814 0.42509502 0.0084333131 -0.08674527 -0.99619484 0
-0.08532165 -0.11285031 0.42501587 0.008433314 -0.08674527 -0.99619484 0
-0.074470624 -0.11416899 0.42522255 0.0084333131 -0.08674527 -0.99619484 0
-0.064685822 -0.11495598 0.42537397 0.008433314 -0.08674527 -0.99619484 0
-0.055278141 -0.11635163 0.42557511 0.0084333131 -0.08674527 -0.99619484 0
-0.043933634 -0.11618347 0.4256565 0.0084333131 -0.08674527 -0.99619484 0
-0.036864709 -0.11450426 0.4255701 0.008433314 -0.08674527 -0.99619484 0
-0.025737854 -0.11414309 0.42563283 0.008433314 -0.08674527 -0.99619484 0
-0.015682157 -0.11455283 0.42575362 0.0084333131 -0.08674527 -0.99619484 0
-0.0044984077 -0.11492765 0.42588097 0.008433314 -0.08674527 -0.99619484 0
0.0036755449 -0.11588385 0.42603341 0.008433314 -0.08674527 -0.99619484 0
0.015480798 -0.1149377 0.42605096 0.008433314 -0.08674527 -0.99619484 0
0.025565725 -0.11423115 0.4260748 0.008433314 -0.08674527 -0.99619484 0
0.035106234 -0.11465442 0.42619243 0.008433314 -0.08674527 -0.99619484 0
0.043465771 -0.11346595 0.42615971 0.008433315 -0.08674527 -0.99619484 0
0.05573158 -0.11567222 0.42645565 0.008433314 -0.08674527 -0.99619484 0
0.063772433 -0.11560518 0.42651787 0.008433314 -0.08674527 -0.99619484 0
0.075128302 -0.11505774 0.42656639 0.0084293736 -0.086749129 -0.99619454 0
0.084973454 -0.11442319 0.42659441 0.0084284721 -0.086750239 -0.99619442 0
0.093895145 -0.11430324 0.42665949 0.0084320735 -0.08674705 -0.99619466 0
0.10500699 -0.11508331 0.42682144 0.0084334249 -0.086745843 -0.99619484 0
0.11549543 -0.1139511 0.42681167 0.0084334239 -0.086745851 -0.99619472 0
0.12515987 -0.11330734 0.42683744 0.0084334239 -0.086745843 -0.99619472 0
0.13454098 -0.11430786 0.42700395 0.0084334249 -0.086745858 -0.99619484 0
0.14481828 -0.11605927 0.42724347 0.0084334249 -0.086745858 -0.99619484 0
0.15232192 -0.11336504 0.42707238 0.0084334239 -0.086745836 -0.99619472 0
0.16653143 -0.11508871 0.42688447 -0.88804048 -0.12051802 -0.44368854 0
0.17451875 -0.11621323 0.42761645 0.021072013 0.088152491 0.99588406 0
0.18535259 -0.11412248 0.42611802 0.95464963 0.061345313 -0.29134303 0
0.19600956 -0.1127023 0.4273845 0.0084462902 -0.086745448 -0.99619472 0
-0.18580624 -0.10604499 0.42460051 -0.65939492 -0.00025483334 -0.75179672 0
-0.17426877 -0.10449243 0.42296681 -0.82585847 0.12615497 0.54958403 0
-0.16527903 -0.10469455 0.42351827 0.084196463 0.090888135 0.99229544 0
-0.15719262 -0.10599989 0.42324886 0.85814941 -0.12132803 -0.49885789 0
-0.14605764 -0.10550418 0.42386204 0.008433314 -0.08674527 -0.99619484 0
-0.1339765 -0.10459364 0.42388499 0.0084333131 -0.08674527 -0.99619484 0
-0.12425001 -0.1047522 0.42398119 0.0084333131 -0.08674527 -0.99619484 0
-0.11533639 -0.10593774 0.42415988 0.0084333131 -0.08674527 -0.99619484 0
-0.10484444 -0.10427609 0.42410401 0.008433314 -0.08674527 -0.99619484 0
-0.09498287 -0.10506093 0.42425582 0.0084333131 -0.08674527 -0.99619484 0
-0.084662817 -0.10508567 0.42434534 0.008433314 -0.08674527 -0.99619484 0
-0.074056149 -0.10341966 0.42429 0.0084333131 -0.08674527 -0.99619484 0
-0.064564794 -0.1046477 0.42447731 0.0084333131 -0.08674527 -0.99619484 0
-0.054815486 -0.10354862 0.42446414 0.008433314 -0.08674527 -0.99619484 0
-0.044293728 -0.10344727 0.42454439 0.008433314 -0.08674527 -0.99619484 0
-0.035248782 -0.10601703 0.42484474 0.0084333131 -0.08674527 -0.99619484 0
-0.025341341 -0.10604119 0.42493072 0.0084333131 -0.08674527 -0.99619484 0
-0.015340897 -0.10390315 0.42482919 0.008433314 -0.08674527 -0.99619484 0
-0.0045256531 -0.10512979 0.42502758 0.008433314 -0.08674527 -0.99619484 0
0.0045667272 -0.10604054 0.42518386 0.008433314 -0.08674527 -0.99619484 0
0.01498777 -0.10334732 0.42503756 0.008433314 -0.08674527 -0.99619484 0
0.025017364 -0.1038905 0.42516977 0.008433314 -0.08674527 -0.99619484 0
0.035222378 -0.10445331 0.42530519 0.008433314 -0.08674527 -0.99619484 0
0.042970147 -0.1049783 0.42541644 0.0084333131 -0.08674527 -0.99619484 0
0.054570157 -0.10433277 0.4254584 0.008433314 -0.08674527 -0.99619484 0
0.064661309 -0.10562861 0.42565671 0.0084314849 -0.086747065 -0.99619472 0
0.076672152 -0.10391667 0.42560923 0.0084259957 -0.086752445 -0.9961943 0
0.084380329 -0.10545297 0.42580825 0.0084315669 -0.086747497 -0.99619466 0
0.095298387 -0.10539808 0.42589593 0.0084334249 -0.086745851 -0.99619472 0
0.10530061 -0.10615268 0.42604628 0.0084334239 -0.086745843 -0.99619472 0
0.11463769 -0.10410364 0.42594689 0.0084334239 -0.086745843 -0.99619472 0
0.12506209 -0.10756253 0.42633638 0.0084334239 -0.086745851 -0.99619478 0
0.13419309 -0.10381943 0.42608774 0.0084334258 -0.086745851 -0.99619472 0
0.14565511 -0.10411215 0.42621025 0.0084334239 -0.086745843 -0.99619478 0
0.15667194 -0.10617121 0.42648283 0.0084334239 -0.086745843 -0.99619472 0
0.16589199 -0.10523145 0.42590368 -0.28784829 -0.10996025 -0.95134217 0
0.17468014 -0.10495923 0.42657316 0.012648647 -0.086538732 -0.99616826 0
0.18572327 -0.10547134 0.42587069 0.89321434 0.041914027 -0.4476732 0
0.19328751 -0.10375718 0.4267529 0.1491145 -0.072188981 -0.98618132 0
-0.18537283 -0.094875082 0.42493293 -0.75014532 0.016462274 -0.66106814 0
-0.17428233 -0.095136687 0.42251283 -0.43386719 -0.036341343 -0.90024364 0
-0.16537426 -0.094676368 0.42267746 0.025303161 -0.085907809 -0.99598169 0
-0.15481766 -0.094730541 0.42272395 0.1536763 -0.098471656 -0.9832024 0
-0.14558491 -0.096089333 0.42304623 0.008433314 -0.08674527 -0.99619484 0
-0.13453576 -0.094480716 0.42299968 0.0084333131 -0.08674527 -0.99619484 0
-0.12481751 -0.094204374 0.42305794 0.008433314 -0.08674527 -0.99619484 0
-0.11493858 -0.095024846 0.42321301 0.008433314 -0.08674527 -0.99619484 0
-0.1045635 -0.097375095 0.42350543 0.008433314 -0.08674527 -0.99619484 0
-0.094310351 -0.093845867 0.42328495 0.008433314 -0.08674527 -0.99619484 0
-0.086292304 -0.095356375 0.42348433 0.008433314 -0.08674527 -0.99619484 0
-0.076978847 -0.096268386 0.42364258 0.008433314 -0.08674527 -0.99619484 0
-0.065360904 -0.093514137 0.42350116 0.008433314 -0.08674527 -0.99619484 0
-0.052957248 -0.096153796 0.42383605 0.008433314 -0.08674527 -0.99619484 0
-0.045584943 -0.09440802 0.42374635 0.008433314 -0.08674527 -0.99619484 0
-0.035242021 -0.095433854 0.42392325 0.008433314 -0.08674527 -0.99619484 0
-0.024416707 -0.094105415 0.4238992 0.0084333131 -0.08674527 -0.99619484 0
-0.014122532 -0.094268329 0.42400056 0.0084333131 -0.08674527 -0.99619484 0
-0.0035402088 -0.095417306 0.42419019 0.0084333131 -0.08674527 -0.99619484 0
0.0039748475 -0.093359977 0.42407465 0.0084333131 -0.08674527 -0.99619484 0
0.015740555 -0.095605373 0.42436978 0.008433314 -0.08674527 -0.99619484 0
0.02723561 -0.093669437 0.42429852 0.008433314 -0.08674527 -0.99619484 0
0.033271443 -0.095919758 0.42454556 0.008433314 -0.08674527 -0.99619484 0
0.043109097 -0.094263099 0.42448461 0.008433314 -0.08674527 -0.99619484 0
0.054493822 -0.094483882 0.42460021 0.0084313182 -0.086747222 -0.99619466 0
0.065557197 -0.094562665 0.42470065 0.0084274812 -0.086751118 -0.99619436 0
0.075335734 -0.09356118 0.42469621 0.0084324954 -0.086746663 -0.99619472 0
0.084567174 -0.094641499 0.4248684 0.0084334239 -0.086745836 -0.99619472 0
0.09366221 -0.094859004 0.42496437 0.0084334239 -0.086745843 -0.99619472 0
0.10414886 -0.096358962 0.42518374 0.0084334239 -0.086745851 -0.99619478 0
0.11577394 -0.095490128 0.42520651 0.0084334239 -0.086745836 -0.99619472 0
0.12517315 -0.093693785 0.42512965 0.0084334249 -0.086745843 -0.99619484 0
0.13328102 -0.09524139 0.42533302 0.0084334239 -0.086745843 -0.99619472 0
0.14538766 -0.094699942 0.42538837 0.0084334239 -0.086745851 -0.99619478 0
0.15574254 -0.095722057 0.42556503 0.0084334239 -0.086745851 -0.99619478 0
0.16615202 -0.095898151 0.42504117 -0.59100139 -0.1241613 -0.79705787 0
0.17565417 -0.095523745 0.42581064 0.037898857 0.088919461 0.99531758 0
0.18458797 -0.094743237 0.42515585 0.78099865 0.016363103 -0.6243183 0
0.19572338 -0.094271757 0.42675689 0.79081756 0.023123844 -0.61161488 0
-0.1838835 -0.085286357 0.42286992 -0.56374055 -0.016004842 -0.82579684 0
-0.1748091 -0.084653631 0.42176908 -0.060795676 -0.07993634 -0.99494427 0
-0.16514054 -0.084939308 0.42179638 0.10906745 0.091880523 0.98977894 0
-0.15613593 -0.086058103 0.42199853 0.015219057 -0.086414367 -0.99614304 0
-0.146355 -0.085476249 0.42211553 0.0084333131 -0.08674527 -0.99619484 0
-0.13536434 -0.084168792 0.42209482 0.0084333131 -0.08674527 -0.99619484 0
-0.12502557 -0.083403818 0.42211568 0.0084333131 -0.08674527 -0.99619484 0
-0.11538979 -0.085139491 0.42234835 0.008433314 -0.08674527 -0.99619484 0
-0.10499863 -0.086004965 0.42251173 0.0084333131 -0.08674527 -0.99619484 0
-0.095872246 -0.085379057 0.42253447 0.0084333131 -0.08674527 -0.99619484 0
-0.08597675 -0.084617615 0.42255193 0.008433314 -0.08674527 -0.99619484 0
-0.074581183 -0.086253501 0.42279086 0.008433314 -0.08674527 -0.99619484 0
-0.067376286 -0.08601974 0.42283151 0.008433314 -0.08674527 -0.99619484 0
-0.05507195 -0.085689656 0.42290691 0.008433314 -0.08674527 -0.99619484 0
-0.045370512 -0.084785208 0.42291024 0.008433314 -0.08674527 -0.99619484 0
-0.035157479 -0.086725973 0.42316574 0.008433314 -0.08674527 -0.99619484 0
-0.025394944 -0.083775558 0.42299145 0.008433314 -0.08674527 -0.99619484 0
-0.016639441 -0.085975632 0.42325714 0.008433314 -0.08674527 -0.99619484 0
-0.0055733598 -0.083379447 0.4231247 0.008433314 -0.08674527 -0.99619484 0
0.005448834 -0.085645959 0.42341542 0.008433314 -0.08674527 -0.99619484 0
0.013735292 -0.086672172 0.42357495 0.008433314 -0.08674527 -0.99619484 0
0.025466314 -0.085328743 0.42355725 0.008433314 -0.08674527 -0.99619484 0
0.035406046 -0.0867441 0.42376465 0.0084333131 -0.08674527 -0.99619484 0
0.045683268 -0.084404059 0.42364788 0.0084296558 -0.086748853 -0.99619454 0
0.054757755 -0.084699273 0.4237504 0.0084265266 -0.086751968 -0.9961943 0
0.064504422 -0.084785208 0.42384031 0.0084317736 -0.086747304 -0.9961946 0
0.073975198 -0.084572226 0.42390192 0.0084334239 -0.086745851 -0.99619478 0
0.085374981 -0.085772604 0.42410293 0.0084334249 -0.086745851 -0.99619472 0
0.095012262 -0.083128899 0.42395443 0.0084334239 -0.086745851 -0.99619478 0
0.10700584 -0.08525385 0.42424092 0.0084334239 -0.086745843 -0.99619478 0
0.11635698 -0.083403789 0.42415896 0.0084334239 -0.086745843 -0.99619478 0
0.12405243 -0.084457852 0.42431593 0.0084334249 -0.086745858 -0.99619484 0
0.13532208 -0.084744632 0.42443627 0.0084334239 -0.086745851 -0.99619478 0
0.14615795 -0.086716749 0.42469972 0.0084334239 -0.086745843 -0.99619478 0
0.15387549 -0.08327993 0.42446581 0.0084334239 -0.086745843 -0.99619472 0
0.16476835 -0.084866017 0.42387661 -0.70018917 -0.12579541 -0.70278776 0
0.1739261 -0.084948838 0.42486414 0.10069229 -0.081857994 -0.99154443 0
0.18496916 -0.086480156 0.42434472 0.70836699 0.0026043723 -0.70583951 0
0.19436704 -0.085129969 0.4261933 0.55911416 -0.018501213 -0.8288843 0
-0.18448311 -0.073927157 0.42522109 -0.99302214 0.090774715 -0.075278163 0
-0.17564736 -0.075774908 0.42099983 0.01005799 -0.086658716 -0.99618727 0
-0.16464725 -0.074451804 0.42083153 0.0042356676 0.087356806 0.99616808 0
-0.15655234 -0.074704908 0.42094544 0.47210649 -0.11567483 -0.87391925 0
-0.14459462 -0.074547842 0.42117885 0.008433314 -0.08674527 -0.99619484 0
-0.13466717 -0.074540511 0.42126223 0.0084333131 -0.08674527 -0.99619484 0
-0.12234304 -0.073713325 0.42129454 0.008433314 -0.08674527 -0.99619484 0
-0.11483095 -0.07451044 0.42142755 0.008433314 -0.08674527 -0.99619484 0
-0.1053056 -0.073456831 0.42141643 0.008433314 -0.08674527 -0.99619484 0
-0.094643176 -0.074323095 0.42158213 0.0084333131 -0.086745262 -0.99619472 0
-0.085306898 -0.076785281 0.42187563 0.008433314 -0.08674527 -0.99619484 0
-0.075019211 -0.075164989 0.42182156 0.008433314 -0.08674527 -0.99619484 0
-0.064371459 -0.073336646 0.42175251 0.008433314 -0.08674527 -0.99619484 0
-0.053664286 -0.074282303 0.42192551 0.0084333131 -0.08674527 -0.99619484 0
-0.044820055 -0.073819868 0.42196009 0.008433314 -0.08674527 -0.99619484 0
-0.03427089 -0.074650794 0.42212176 0.008433314 -0.08674527 -0.99619484 0
-0.025282523 -0.074340813 0.42217088 0.008433314 -0.08674527 -0.99619484 0
-0.015018358 -0.075450748 0.4223544 0.008433314 -0.08674527 -0.99619484 0
-0.0060652914 -0.075107396 0.4224003 0.008433314 -0.08674527 -0.99619484 0
0.0051888367 -0.075746931 0.42255124 0.008433314 -0.08674527 -0.99619484 0
0.015288755 -0.07609883 0.42266738 0.008433314 -0.08674527 -0.99619484 0
0.023986626 -0.074523546 0.42260388 0.008433314 -0.08674527 -0.99619484 0
0.035505034 -0.074600756 0.42270809 0.008430386 -0.086748138 -0.99619454 0
0.044767473 -0.07587149 0.4228971 0.0084259957 -0.086752445 -0.99619424 0
0.056085076 -0.075403623 0.42295215 0.0084320735 -0.086747043 -0.99619466 0
0.065002419 -0.074280359 0.42292976 0.0084334249 -0.086745858 -0.99619484 0
0.075334564 -0.075356752 0.42311096 0.0084334239 -0.086745843 -0.99619472 0
0.083947167 -0.076336712 0.42326921 0.0084334239 -0.086745843 -0.99619472 0
0.094113648 -0.07691332 0.4234055 0.0084334239 -0.086745843 -0.99619478 0
0.10467289 -0.074226044 0.42326084 0.0084334239 -0.086745851 -0.99619478 0
0.11368607 -0.075774297 0.42347199 0.0084334239 -0.086745843 -0.99619472 0
0.12479953 -0.075646341 0.42355496 0.0084334239 -0.086745851 -0.99619478 0
0.13532537 -0.074917555 0.42358059 0.0084334239 -0.086745843 -0.99619472 0
0.14519341 -0.073569849 0.42354679 0.0084334239 -0.086745843 -0.99619472 0
0.15612067 -0.074526846 0.42372265 0.0084334239 -0.086745843 -0.99619472 0
0.16537432 -0.074624725 0.42348582 -0.88879055 -0.04167312 0.45641509 0
0.17518426 -0.075270377 0.42404196 0.021063419 0.088151105 0.9958843 0
0.18398944 -0.07547275 0.42344323 0.61692929 -0.012864538 -0.78691351 0
0.19453526 -0.075324297 0.4263829 0.97762775 0.077872075 -0.19539683 0
-0.18359353 -0.065836519 0.42504135 -0.99523616 0.096034788 -0.016804164 0
-0.17473483 -0.065523677 0.42314941 0.0084416643 -0.08674597 -0.99619472 0
-0.16502827 -0.064212292 0.42452106 -0.0028113192 0.087019391 0.99620259 0
-0.15559736 -0.06556499 0.42019302 0.019741986 -0.086191565 -0.99608296 0
-0.14412153 -0.065586679 0.42040253 0.008433314 -0.08674527 -0.99619484 0
-0.13336053 -0.065189242 0.420459 0.008433314 -0.08674527 -0.99619484 0
-0.12396306 -0.06447836 0.42047668 0.008433314 -0.08674527 -0.99619484 0
-0.1153198 -0.063685097 0.42048079 0.008433314 -0.08674527 -0.99619484 0
-0.10592899 -0.064214624 0.4206064 0.008433314 -0.08674527 -0.99619484 0
-0.096267365 -0.065106913 0.42076588 0.008433314 -0.08674527 -0.99619484 0
-0.084720731 -0.063599035 0.42073232 0.008433314 -0.08674527 -0.99619484 0
-0.073808216 -0.064535938 0.42090628 0.008433314 -0.08674527 -0.99619484 0
-0.065453447 -0.064364433 0.42096207 0.008433315 -0.08674527 -0.99619484 0
-0.055784501 -0.06484367 0.42108563 0.008433314 -0.08674527 -0.99619484 0
-0.044801414 -0.066104643 0.42128843 0.0084333131 -0.08674527 -0.99619484 0
-0.035047371 -0.064412527 0.42122367 0.008433314 -0.08674527 -0.99619484 0
-0.025235673 -0.067743383 0.42159677 0.008433314 -0.08674527 -0.99619484 0
-0.016810639 -0.066270217 0.42153984 0.008433314 -0.08674527 -0.99619484 0
-0.0047634449 -0.065580875 0.42158175 0.0084333131 -0.08674527 -0.99619484 0
0.003585865 -0.063125081 0.42143857 0.008433314 -0.08674527 -0.99619484 0
0.015783332 -0.063248657 0.4215526 0.008433314 -0.08674527 -0.99619484 0
0.026013855 -0.064331457 0.42173347 0.0084296549 -0.086748853 -0.99619454 0
0.034624234 -0.06488952 0.42185497 0.0084259957 -0.086752445 -0.9961943 0
0.044950046 -0.06524764 0.42197353 0.0084311962 -0.086747833 -0.99619466 0
0.055430368 -0.065563254 0.42208967 0.0084334249 -0.086745843 -0.99619484 0
0.06543117 -0.06633009 0.42224118 0.0084334239 -0.086745851 -0.99619478 0
0.075881541 -0.062934414 0.42203391 0.0084334239 -0.086745836 -0.99619478 0
0.085650682 -0.065080881 0.4223035 0.0084334239 -0.086745843 -0.99619478 0
0.094431914 -0.066018507 0.42245951 0.0084334239 -0.086745851 -0.99619478 0
0.10420384 -0.065133676 0.42246518 0.008433423 -0.086745851 -0.99619478 0
0.11562222 -0.063350648 0.42240658 0.0084334249 -0.086745843 -0.99619484 0
0.12410429 -0.06558203 0.42267266 0.0084334249 -0.086745843 -0.99619484 0
0.13591275 -0.064988308 0.42272097 0.0084334239 -0.086745843 -0.99619478 0
0.14554973 -0.064894259 0.4227944 0.008433423 -0.086745851 -0.99619478 0
0.15456744 -0.063696116 0.42276636 0.0084334239 -0.086745843 -0.99619472 0
0.16469893 -0.065890267 0.42294526 -0.9224183 -0.11714485 -0.36799681 0
0.17503263 -0.063326083 0.42298031 0.99882346 0.048493359 -1.6052833e-05 0
0.18448259 -0.065772474 0.42261484 0.35744417 -0.049319517 -0.93263143 0
0.19354279 -0.065306157 0.42496657 0.85779881 0.038343564 -0.51255345 0
-0.18212445 -0.055485062 0.42693156 -0.85776711 0.1269799 0.49810821 0
-0.1743902 -0.055560008 0.42931151 -0.008436163 0.086746007 0.99619466 0
-0.16332622 -0.054377288 0.42930213 -0.0084330887 0.086745501 0.99619484 0
-0.15450805 -0.055752456 0.42949656 -0.0084330887 0.086745501 0.99619484 0
-0.14581828 -0.053880174 0.42940703 -0.0084330887 0.086745501 0.99619484 0
-0.13521455 -0.053567111 0.42946959 -0.0084330887 0.086745501 0.99619484 0
-0.12450413 -0.056927659 0.42698479 -0.0084329359 0.08674565 0.99619484 0
-0.11465041 -0.05365796 0.42965153 -0.0084330877 0.086745501 0.99619484 0
-0.10502004 -0.054406691 0.42645219 -0.0084328614 0.086745739 0.99619484 0
-0.092793562 -0.050993733 0.42960459 -0.0084330887 0.086745501 0.99619484 0
-0.085899405 -0.055416852 0.42447129 0.0084342239 -0.086744376 -0.9961949 0
-0.074546546 -0.055644542 0.4209623 0.0084333364 -0.086745247 -0.99619484 0
-0.064531371 -0.056233205 0.42097887 0.0084333327 -0.086745247 -0.99619484 0
-0.053947363 -0.056494303 0.42037418 0.008433314 -0.08674527 -0.99619484 0
-0.044891603 -0.054949608 0.42122889 0.0084333392 -0.086745247 -0.99619484 0
-0.036442656 -0.055315584 0.42041972 0.008433315 -0.08674527 -0.99619484 0
-0.025147624 -0.055097241 0.42049631 0.0084333131 -0.08674527 -0.99619484 0
-0.015122649 -0.052830365 0.42038378 0.008433314 -0.08674527 -0.99619484 0
-0.005629933 -0.054216705 0.42058486 0.008433314 -0.08674527 -0.99619484 0
0.0062084394 -0.054467317 0.42070687 0.008433314 -0.08674527 -0.99619484 0
0.015295164 -0.055591431 0.42088175 0.0084313182 -0.086747222 -0.99619466 0
0.025575578 -0.05578335 0.4209854 0.0084259957 -0.086752445 -0.9961943 0
0.034061313 -0.053824514 0.42088661 0.0084302407 -0.086748667 -0.99619454 0
0.044481922 -0.054938745 0.42107186 0.0084334239 -0.086745836 -0.99619472 0
0.05455843 -0.05610859 0.42125902 0.0084334239 -0.086745851 -0.99619478 0
0.065718792 -0.055476837 0.4212985 0.0084334239 -0.086745843 -0.99619478 0
0.074768789 -0.053573906 0.42120937 0.0084334239 -0.086745851 -0.99619478 0
0.084739387 -0.055465765 0.42145857 0.0084334239 -0.086745851 -0.99619478 0
0.094547033 -0.055518784 0.42154619 0.0084334239 -0.086745851 -0.99619478 0
0.104257 -0.05415516 0.42150965 0.0084334249 -0.086745843 -0.99619484 0
0.11526596 -0.055529337 0.42172253 0.0084334249 -0.086745858 -0.99619484 0
0.12462213 -0.052773505 0.42156178 0.0084334239 -0.086745843 -0.99619472 0
0.13484551 -0.054540657 0.42180216 0.0084334239 -0.086745851 -0.99619478 0
0.14523795 -0.055116937 0.42194033 0.0084334239 -0.086745843 -0.99619472 0
0.15428297 -0.056527592 0.42213976 0.0084334239 -0.086745843 -0.99619478 0
0.16564544 -0.054084558 0.42199698 -0.12912838 -0.098633558 -0.98671031 0
0.17600745 -0.054545149 0.42220032 0.016854744 -0.086331494 -0.99612391 0
0.18437432 -0.054117355 0.4221952 0.092431344 -0.078816094 -0.99259484 0
0.19293253 -0.0555031 0.42528236 0.99198079 0.088512696 -0.090219915 0
-0.18178104 -0.044852499 0.42591238 -0.97337282 0.11256588 0.19968523 0
-0.17647335 -0.046862159 0.42853653 -0.0085241972 0.086753666 0.99619335 0
-0.16408099 -0.045759466 0.42854533 -0.0084330887 0.086745501 0.99619484 0
-0.15551774 -0.045040667 0.42855519 -0.0084330887 0.086745501 0.99619484 0
-0.14666051 -0.045594543 0.42867845 -0.0084330887 0.086745501 0.99619484 0
-0.13474609 -0.046443623 0.42885321 -0.0084330887 0.086745501 0.99619484 0
-0.12533993 -0.044234142 0.4287405 -0.0084330887 0.086745501 0.99619484 0
-0.11330074 -0.045136616 0.42892095 -0.0084330877 0.086745493 0.99619484 0
-0.10418198 -0.04659503 0.42912516 -0.0084330887 0.086745501 0.99619484 0
-0.093825571 -0.046113141 0.42917088 -0.0084330877 0.086745501 0.99619484 0
-0.085337423 -0.044432592 0.42909637 -0.0084330887 0.086745501 0.99619484 0
-0.074540377 -0.044693895 0.42921054 -0.0084330887 0.086745501 0.99619484 0
-0.065275729 -0.044759471 0.42929471 -0.0084330887 0.086745501 0.99619484 0
-0.055120766 -0.043819338 0.42929879 -0.0084330887 0.086745501 0.99619484 0
-0.043589853 -0.045630321 0.4295541 -0.0084330887 0.086745501 0.99619484 0
-0.035219427 -0.045220695 0.42958924 -0.0084330887 0.086745501 0.99619484 0
-0.023189873 -0.046107862 0.4269003 -0.0084329359 0.08674565 0.99619484 0
-0.015617119 -0.045192555 0.42849797 -0.0084330495 0.086745538 0.99619484 0
-0.005373694 -0.041239798 0.42949528 -0.0084330877 0.086745493 0.99619484 0
0.008481429 -0.044102397 0.42699379 -0.0084276823 0.086750828 0.99619442 0
0.014776816 -0.045746166 0.42448139 0.008416092 -0.086762078 -0.99619359 0
0.026441908 -0.044510368 0.42431316 0.0084412629 -0.086739473 -0.99619526 0
0.034818094 -0.045673143 0.42219085 0.0084352121 -0.086744316 -0.9961949 0
0.044179395 -0.044401366 0.4226613 0.0084330607 -0.086746 -0.99619478 0
0.055797715 -0.045296643 0.42032802 0.0084334239 -0.086745843 -0.99619472 0
0.064947635 -0.04572529 0.42044285 0.0084334239 -0.086745851 -0.99619478 0
0.076058887 -0.044822313 0.42045829 0.0084334239 -0.086745851 -0.99619478 0
0.08581765 -0.044423595 0.42050618 0.0084334239 -0.086745843 -0.99619472 0
0.095004052 -0.044322137 0.42057508 0.0084334239 -0.086745843 -0.99619472 0
0.1048203 -0.046326008 0.42083269 0.0084334239 -0.086745843 -0.99619472 0
0.11489663 -0.046290323 0.42091486 0.0084334239 -0.086745851 -0.99619478 0
0.12555812 -0.044227354 0.42082548 0.0084334239 -0.086745843 -0.99619478 0
0.13475752 -0.044747874 0.42094874 0.0084334249 -0.086745858 -0.99619484 0
0.1460346 -0.045604788 0.42111877 0.0084334239 -0.086745851 -0.99619478 0
0.15364586 -0.046097659 0.42122611 0.0084334239 -0.086745843 -0.99619478 0
0.16408581 -0.044542067 0.42120412 -0.6919688 -0.12643801 -0.71076906 0
0.17574172 -0.046518736 0.42153421 0.016850203 0.087954842 0.99598193 0
0.18332644 -0.044541597 0.42127317 0.29429755 -0.056959413 -0.95401502 0
0.19200802 -0.044609722 0.42573327 0.99408334 0.091502912 -0.058527522 0
-0.18080002 -0.035103511 0.42485395 -0.97757483 0.11117926 0.17884807 0
-0.17534016 -0.036482032 0.4276422 -0.0084233861 0.08674521 0.99619496 0
-0.16573808 -0.034602717 0.42755982 -0.0084330887 0.086745501 0.99619484 0
-0.15422574 -0.03554574 0.42773935 -0.0084330887 0.086745501 0.99619484 0
-0.14506051 -0.033898436 0.42767352 -0.0084330887 0.086745501 0.99619484 0
-0.13604119 -0.035109654 0.42785534 -0.0084330887 0.086745501 0.99619484 0
-0.12438837 -0.035847355 0.42801818 -0.0084330887 0.086745501 0.99619484 0
-0.11535312 -0.03398646 0.42793265 -0.0084330877 0.086745501 0.99619484 0
-0.10473727 -0.034100078 0.42803246 -0.0084330887 0.086745501 0.99619484 0
-0.094225422 -0.03639878 0.4283216 -0.0084330887 0.086745501 0.99619484 0
-0.084338307 -0.035113707 0.42829335 -0.0084330887 0.086745501 0.99619484 0
-0.07418815 -0.036034789 0.4284595 -0.0084330887 0.086745501 0.99619484 0
-0.064046301 -0.034418523 0.42840463 -0.0084330887 0.086745501 0.99619484 0
-0.054707244 -0.035129949 0.42854565 -0.0084330887 0.086745501 0.99619484 0
-0.043688387 -0.03630618 0.42874137 -0.0084330887 0.086745501 0.99619484 0
-0.035511933 -0.034251727 0.4286316 -0.0084330887 0.086745501 0.99619484 0
-0.024464637 -0.036390722 0.42891142 -0.0084330887 0.086745501 0.99619484 0
-0.014369707 -0.035757199 0.4289417 -0.0084330887 0.086745501 0.99619484 0
-0.0053684115 -0.03523007 0.42897207 -0.0084317019 0.086746857 0.99619466 0
0.0049655554 -0.034580022 0.42900285 -0.0084284693 0.086750023 0.99619448 0
0.014232595 -0.034679003 0.4290899 -0.0084283575 0.08675012 0.99619442 0
0.024565017 -0.036191013 0.42930892 -0.0084280968 0.086750351 0.99619442 0
0.032159198 -0.033488769 0.42913789 -0.0084292777 0.086749412 0.99619454 0
0.043331984 -0.036101352 0.42945999 -0.0084341504 0.086745515 0.99619484 0
0.055805501 -0.034503799 0.42942646 -0.0084341494 0.086745515 0.99619484 0
0.064215943 -0.034800816 0.42952356 -0.0084341494 0.086745515 0.99619484 0
0.074916176 -0.034886532 0.42906395 -0.0084341941 0.086745493 0.99619484 0
0.085537471 -0.035556145 0.42753908 -0.0084344409 0.086745389 0.99619484 0
0.095347673 -0.035751615 0.42713216 -0.0084345862 0.086745344 0.99619484 0
0.10403673 -0.034418233 0.42695931 -0.0084346347 0.086745314 0.99619484 0
0.11389602 -0.035021897 0.42494431 -0.9160226 -0.40054986 -0.021506032 0
0.1247908 -0.035281166 0.42405528 0.0084319711 -0.086746477 -0.99619472 0
0.13656209 -0.034351353 0.42436075 0.0084312456 -0.086746797 -0.99619472 0
0.1464764 -0.034796659 0.42269096 0.0084330607 -0.086745992 -0.99619478 0
0.15465009 -0.035938185 0.42160472 0.0084333038 -0.086745903 -0.99619484 0
0.16523142 -0.03452364 0.4204286 -0.15425546 0.071705386 0.98542565 0
0.17513888 -0.034522403 0.42048541 0.016850201 0.087954842 0.99598193 0
0.1845344 -0.035901982 0.4205997 0.0084351776 -0.086746186 -0.99619478 0
0.19098231 -0.034577258 0.42489839 0.97980905 0.079119846 -0.18361448 0
-0.18026717 -0.028435396 0.42175388 -0.9952364 0.096035875 -0.016783079 0
